# .PCD v0.7 - Point Cloud Data file format
VERSION 0.7
FIELDS x y z
SIZE 4 4 4
TYPE F F F
COUNT 1 1 1
WIDTH 1681
HEIGHT 1
VIEWPOINT 0 0 0 1 0 0 0
POINTS 1681
DATA ascii
3.12883 -1.63124 0.97465301
3.08162 -1.63124 1.0700001
2.85495 -1.77019 1.0700001
2.9433401 -1.63124 1.34389
2.85495 -1.68406 1.34389
2.85495 -1.63124 1.50183
3.12883 -1.45298 1.34389
3.12883 -1.35736 1.4141001
2.9189999 -1.35736 1.61777
2.85495 -1.47009 1.61777
2.85495 -1.35736 1.65776
3.0171599 -1.08347 1.61777
2.85495 -1.08347 1.80246
3.12816 -0.80958998 1.61777
2.88744 -0.80958998 1.89165
2.85495 -0.87391502 1.89165
2.85495 -0.80958998 1.9287
3.06424 -0.535707 1.89165
2.85495 -0.535707 2.1298299
3.04337 -0.261823 1.89165
2.85495 -0.261823 2.10603
3.12883 -0.535707 1.81797
3.12883 -0.261823 1.79443
3.12883 0.0120602 1.84552
3.08831 0.0120602 1.89165
3.12883 0.130413 1.89165
2.85495 0.0120602 2.1573801
3.12883 0.28594401 2.0466499
3.02438 0.28594401 2.16554
2.85495 0.055790599 2.16554
2.85495 0.28594401 2.33337
3.12883 0.43799701 2.16554
3.12883 0.55982703 2.4010401
3.1161201 0.55982703 2.43942
2.85495 0.35321099 2.43942
2.961 0.55982703 2.7133
2.85495 0.51128203 2.7133
2.85495 0.55982703 2.7888601
3.12883 0.74370903 2.7133
3.12883 0.83371001 2.77068
2.85495 0.83371001 2.8362
3.12883 1.10759 2.7920699
2.85495 1.10759 2.8656299
3.12883 1.38108 2.7133
3.1257501 1.38148 2.7133
2.85495 1.38148 2.8600099
3.12883 1.38148 2.70087
3.12883 1.65536 2.5026801
2.94361 1.65536 2.7133
2.85495 1.92924 2.5896001
2.85495 1.69508 2.7133
3.12883 1.78468 2.43942
3.0538099 1.92924 2.43942
2.85495 1.65536 2.74313
2.72563 1.65536 2.7133
2.5810599 1.38148 2.81534
2.5810599 1.6044101 2.7133
2.5810599 1.65536 2.69819
2.3071799 1.65536 2.6350701
2.3071799 1.4779 2.7133
2.5810599 1.92924 2.5446701
2.3071799 1.92924 2.4997301
2.5810599 2.12409 2.43942
2.3071799 2.0692599 2.43942
2.3071799 2.20313 2.34621
2.5810599 2.20313 2.39114
2.5810599 2.4493301 2.16554
2.3071799 2.4637699 2.16554
2.3071799 2.47701 2.1563101
2.5810599 2.47701 2.10817
2.5810599 2.6199701 1.89165
2.3071799 2.6747999 1.89165
2.3071799 2.75089 1.76875
2.5810599 2.75089 1.6829
2.5810599 2.77617 1.61777
2.3071799 2.87272 1.61777
2.3071799 3.0206299 1.34389
2.5810599 2.9781101 1.34389
2.3071799 3.02478 1.30176
2.5810599 3.02478 1.2554899
2.5810599 3.0757301 1.0700001
2.3071799 3.1105001 1.0700001
2.3071799 3.1468799 0.796121
2.5810599 3.11184 0.796121
2.3071799 3.1115699 0.522237
2.5810599 3.05861 0.522237
2.3071799 3.12976 0.248354
2.5810599 3.07707 0.248354
2.3071799 3.03374 -0.0255294
2.5810599 3.02478 0.0436101
2.41243 3.02478 -0.0255294
2.3071799 3.02478 -0.034756999
2.5810599 2.98773 -0.0255294
2.5810599 2.75089 -0.25167
2.4538801 2.75089 -0.299413
2.3071799 2.80827 -0.299413
2.3071799 2.75089 -0.351702
2.3071799 2.47701 -0.49024901
2.5810599 2.68363 -0.299413
2.5810599 2.47701 -0.40813699
2.3071799 2.20313 -0.55550998
2.5810599 2.20313 -0.47366601
2.5810599 1.92924 -0.52073997
2.3549199 1.92924 -0.57329601
2.3071799 2.02005 -0.57329601
2.3071799 1.92924 -0.602584
2.3071799 1.65536 -0.64965701
2.55739 1.65536 -0.57329601
2.3071799 1.38148 -0.715186
2.5810599 1.6450599 -0.57329601
2.5810599 1.38148 -0.633075
2.5810599 1.65536 -0.56781298
2.85495 1.65536 -0.50415701
2.85495 1.38148 -0.56941801
2.8382299 1.38148 -0.57329601
2.85495 1.92924 -0.45708299
3.12883 1.92924 -0.37497199
3.12883 1.80019 -0.299413
3.06022 1.65536 -0.299413
3.12883 1.65536 -0.177048
3.12883 1.65175 -0.0255294
2.88504 1.38148 -0.0255294
2.9321101 1.38148 -0.299413
3.12883 1.65536 0.124384
3.1073 1.65536 0.248354
2.9056301 1.38148 0.248354
3.08269 1.65536 0.522237
2.9941599 1.38148 0.522237
3.12883 1.38148 0.77432299
3.12602 1.65536 0.796121
3.12883 1.40221 0.796121
3.12883 1.65536 0.81952399
3.12883 1.68625 0.796121
3.2335401 1.92924 0.796121
3.1961 1.92924 1.0700001
3.21455 1.65536 1.0700001
3.40271 1.65536 1.32075
3.1666801 1.92924 1.34389
3.40271 1.67234 1.34389
3.40271 1.65536 1.49113
3.1559801 1.92924 1.61777
3.3185999 1.65536 1.61777
3.1819201 1.92924 1.89165
3.2525301 1.65536 1.89165
3.20064 1.92924 2.16554
3.26564 1.65536 2.16554
3.12883 1.92924 2.3542299
3.18379 1.65536 2.43942
3.12883 2.08477 2.16554
2.85495 2.20313 2.36761
2.85495 2.15378 2.43942
2.9904201 2.20313 2.16554
3.12883 2.20313 1.91827
2.85495 2.47701 1.89446
2.85495 2.34288 2.16554
3.12883 2.2056701 1.89165
2.85695 2.47701 1.89165
3.12883 2.20313 1.73024
3.1222799 2.20313 1.61777
2.9963 2.47701 1.61777
3.07761 2.20313 1.34389
3.0217099 2.47701 1.34389
3.06985 2.20313 1.0700001
2.96314 2.47701 1.0700001
3.11693 2.20313 0.796121
2.9733 2.47701 0.796121
3.11586 2.20313 0.522237
2.961 2.47701 0.522237
3.12883 2.20313 0.31481901
3.12883 2.2605 0.248354
3.0559499 2.47701 0.248354
3.12883 2.47701 0.147921
3.12883 2.5846701 -0.0255294
3.0267899 2.75089 -0.0255294
2.8871801 2.75089 0.248354
2.85495 2.75089 -0.169559
3.12883 2.47701 -0.26263699
2.97036 2.47701 -0.299413
2.85495 2.5413401 -0.299413
2.85495 2.47701 -0.32629299
2.85495 2.20313 -0.409742
3.12883 2.3452799 -0.299413
3.12883 2.20313 -0.327898
3.2514601 2.20313 -0.299413
3.2447801 2.47701 -0.0255294
3.40271 2.35572 -0.0255294
3.40271 2.20313 -0.137731
3.40271 2.0136299 -0.0255294
3.3373201 1.92924 -0.0255294
3.21455 1.92924 -0.299413
3.40271 2.20313 0.0259574
3.1533 2.20313 0.248354
3.2506599 1.92924 0.248354
3.12883 2.17277 0.522237
3.25173 1.92924 0.522237
3.12883 2.17518 0.796121
3.12883 1.68171 0.248354
3.12883 1.73921 0.522237
3.1319101 1.65536 -0.0255294
3.4440401 2.20313 -0.0255294
2.85495 2.86042 -0.0255294
2.85495 2.8331399 0.248354
2.85495 2.75089 0.44881901
2.81657 3.02478 0.248354
2.7277701 3.02478 0.522237
2.8443799 2.75089 0.522237
2.85495 2.75089 0.57399201
2.76735 3.02478 0.796121
2.85495 2.8187001 0.796121
2.85495 2.75089 0.96769899
2.6924601 3.02478 1.0700001
2.8465199 2.75089 1.0700001
2.85495 2.7309699 1.0700001
2.8136201 2.75089 1.34389
2.85495 2.7242801 1.34389
2.6387 2.75089 1.61777
2.85495 2.5889399 1.61777
2.8836999 2.75089 0.796121
2.85495 2.7258899 0.522237
3.12883 2.06391 1.0700001
3.12883 2.0256701 1.34389
3.12883 2.0922599 1.61777
2.85495 2.4819601 1.89165
3.12977 2.20313 1.89165
3.34935 1.38148 2.16554
3.2811501 1.38148 2.43942
3.40271 1.10759 2.3780401
3.40271 1.29228 2.16554
3.37851 1.10759 2.43942
3.40271 1.38148 2.0030501
3.51197 1.10759 2.16554
3.60692 1.10759 1.89165
3.4886999 1.38148 1.89165
3.6633601 1.10759 1.61777
3.5467401 1.38148 1.61777
3.6622901 1.10759 1.34389
3.54567 1.38148 1.34389
3.6037099 1.10759 1.0700001
3.44083 1.38148 1.0700001
3.40271 1.38148 1.03376
3.4365499 1.10759 0.796121
3.40271 1.15453 0.796121
3.40271 1.10759 0.76282197
3.40271 1.03471 0.796121
3.3046899 0.83371001 0.796121
3.18647 0.83371001 0.522237
3.1656101 1.10759 0.522237
3.40271 0.83371001 0.98829401
3.40271 0.74477899 1.0700001
3.3461399 0.55982703 1.0700001
3.2463801 0.55982703 0.796121
3.40271 0.55982703 1.2135
3.40271 0.36257201 1.34389
3.38573 0.28594401 1.34389
3.30656 0.28594401 1.0700001
3.40271 0.28594401 1.38147
3.40271 0.148333 1.61777
3.32903 0.0120602 1.61777
3.3849299 0.0120602 1.34389
3.30843 -0.261823 1.34389
3.2637701 -0.261823 1.61777
3.3557701 -0.261823 1.0700001
3.26671 0.0120602 1.0700001
3.40271 -0.261823 0.99899203
3.40271 -0.14507499 0.796121
3.2223101 0.0120602 0.796121
3.40271 0.0057747401 0.522237
3.3982999 0.0120602 0.522237
3.40271 0.0120602 0.51434702
3.12883 0.28594401 0.43063101
3.12883 0.259866 0.522237
3.40271 0.16866 0.248354
3.19101 0.28594401 0.248354
3.40271 0.28594401 0.0104445
3.12883 0.47143 -0.0255294
3.12883 0.350804 0.248354
3.40271 0.289554 -0.0255294
3.12883 0.44334599 -0.299413
3.40271 0.339838 -0.299413
3.12883 0.28594401 -0.494528
3.40271 0.28594401 -0.38620499
3.40271 0.15635701 -0.57329601
3.12883 0.21065199 -0.57329601
3.12883 0.035998199 -0.84718001
3.40271 0.0154035 -0.84718001
3.12883 0.0120602 -0.87218797
3.40271 0.0120602 -0.85480201
3.40271 -0.18412501 -1.12106
3.12883 -0.167542 -1.12106
3.12883 -0.261823 -1.24744
3.40271 -0.261823 -1.1599801
3.12883 -0.535707 -1.2624201
3.40271 -0.535707 -1.22203
3.12883 -0.80958998 -1.16934
3.40271 -0.77736098 -1.12106
3.2765999 -0.80958998 -1.12106
3.40271 -0.80958998 -1.1113
3.12883 -1.08347 -0.85747701
3.12883 -0.84904099 -1.12106
3.40271 -0.99882102 -0.84718001
3.1482201 -1.08347 -0.84718001
3.40271 -1.08347 -0.74166501
3.12883 -1.09163 -0.84718001
3.40271 -1.19541 -0.57329601
3.12883 -1.3342201 -0.57329601
3.12883 -1.35736 -0.54454398
3.40271 -1.35736 -0.34234101
3.40271 -1.39173 -0.299413
3.12883 -1.56451 -0.299413
3.40271 -1.60998 -0.0255294
3.36273 -1.63124 -0.0255294
3.40271 -1.52385 0.248354
3.31512 -1.63124 0.248354
3.40271 -1.49336 0.522237
3.26724 -1.63124 0.522237
3.40271 -1.43479 0.796121
3.1744299 -1.63124 0.796121
3.40271 -1.35736 1.02841
3.39643 -1.35736 1.0700001
3.12883 -1.60115 1.0700001
3.17978 -1.35736 1.34389
3.40271 -1.08347 1.2038701
3.25788 -1.08347 1.34389
3.40271 -1.3492 1.0700001
3.12883 -1.08347 1.49059
3.40271 -0.82015502 1.34389
3.40271 -0.80958998 1.35499
3.12883 -0.80958998 1.61684
3.40271 -0.535707 1.5061001
3.2827499 -0.535707 1.61777
3.12883 -0.80491 1.61777
3.4124801 -0.80958998 1.34389
3.5454099 -0.535707 1.34389
3.6766 -0.535707 1.19451
3.6531899 -0.80958998 1.0700001
3.6766 -0.800363 1.0700001
3.6766 -0.80958998 1.04339
3.5202601 -1.08347 1.0700001
3.6679001 -1.08347 0.796121
3.6766 -1.07184 0.796121
3.6766 -1.08347 0.78074199
3.48014 -1.35736 0.796121
3.51384 -1.35736 0.522237
3.6766 -1.24114 0.522237
3.6766 -1.26174 0.248354
3.6031799 -1.35736 0.248354
3.6766 -1.25532 -0.0255294
3.5983601 -1.35736 -0.0255294
3.6766 -1.22001 -0.299413
3.5713501 -1.35736 -0.299413
3.7813101 -1.08347 -0.299413
3.80832 -1.08347 -0.0255294
3.6766 -1.15582 -0.57329601
3.7321 -1.08347 -0.57329601
3.6766 -1.08347 -0.68335801
3.6766 -0.95228201 -0.84718001
3.8473699 -0.80958998 -0.84718001
3.8917699 -0.80958998 -0.57329601
3.6766 -0.80958998 -1.03561
3.6766 -0.58746099 -1.12106
3.69572 -0.535707 -1.12106
3.79495 -0.535707 -0.84718001
3.6766 -0.535707 -1.13912
3.6766 -0.48956901 -1.12106
3.6766 -0.261823 -0.88235098
3.71364 -0.261823 -0.84718001
3.7321 -0.261823 -0.57329601
3.8027101 -0.535707 -0.57329601
3.7767601 -0.261823 -0.299413
3.81073 -0.535707 -0.299413
3.7845199 -0.261823 -0.0255294
3.85513 -0.535707 -0.0255294
3.7740901 -0.261823 0.248354
3.88134 -0.535707 0.248354
3.6766 -0.261823 0.51033503
3.6766 -0.27131799 0.522237
3.8891001 -0.535707 0.522237
3.6766 -0.37589699 0.796121
3.8048501 -0.535707 0.796121
3.6766 -0.48020801 1.0700001
3.72086 -0.535707 1.0700001
3.40271 -0.29592499 1.0700001
3.5871301 -0.261823 0.796121
3.95048 -0.80958998 0.60421503
3.95048 -0.73911297 0.522237
3.8776 -0.80958998 0.796121
3.9781599 -0.80958998 0.522237
3.95048 -0.80958998 0.44480699
3.95048 -0.88167202 0.522237
3.81795 -1.08347 0.522237
3.8131399 -1.08347 0.248354
3.9335001 -0.80958998 0.248354
3.9075501 -0.80958998 -0.0255294
3.67138 -0.261823 0.522237
3.6766 -0.15443601 0.248354
3.6766 -0.033275001 -0.0255294
3.6219001 0.0120602 -0.0255294
3.5376501 0.0120602 0.248354
3.6766 0.0120602 -0.118473
3.6766 0.041614901 -0.299413
3.5066199 0.28594401 -0.299413
3.4226401 0.28594401 -0.0255294
3.7061501 0.0120602 -0.299413
3.6766 0.0616748 -0.57329601
3.68823 0.0120602 -0.57329601
3.6766 0.0120602 -0.62531799
3.88134 -0.80958998 -0.299413
3.6766 -0.228257 -0.84718001
3.4108701 0.0120602 -0.84718001
3.45661 -0.261823 -1.12106
3.40271 -0.42350501 1.34389
2.85495 -1.63124 -0.43408099
2.85495 -1.51957 -0.57329601
3.0762701 -1.35736 -0.57329601
2.85495 -1.35736 -0.74674702
2.5810599 -1.63124 -0.60739797
2.5810599 -1.41607 -0.84718001
2.71948 -1.35736 -0.84718001
2.6456499 -1.63124 -0.57329601
2.5810599 -1.35736 -0.920331
2.5810599 -1.19648 -1.12106
2.7932999 -1.08347 -1.12106
2.85495 -1.08347 -1.08857
2.85495 -1.27698 -0.84718001
2.5810599 -1.08347 -1.19234
2.5810599 -0.80958998 -1.33865
2.85495 -0.80958998 -1.22738
2.85495 -1.03439 -1.12106
2.5810599 -0.66582799 -1.39495
2.7534399 -0.535707 -1.39495
2.85495 -0.535707 -1.35576
2.5810599 -0.535707 -1.46703
2.5810599 -0.35610399 -1.39495
2.3071799 -0.535707 -1.57829
2.3071799 -0.261823 -1.49137
2.5025599 -0.261823 -1.39495
2.5810599 -0.261823 -1.35015
2.3071799 0.0120602 -1.3892
2.5810599 0.0120602 -1.1795
2.3071799 -0.020436799 -1.39495
2.3071799 0.28594401 -1.1824501
2.3399401 0.28594401 -1.12106
2.5810599 0.067826398 -1.12106
2.5810599 0.28594401 -0.892515
2.35653 0.55982703 -1.12106
2.4538801 0.55982703 -0.84718001
2.5810599 0.32913899 -0.84718001
2.5810599 0.55982703 -0.60552597
2.5327799 0.83371001 -0.84718001
2.5761099 0.83371001 -0.57329601
2.5810599 0.59071898 -0.57329601
2.5810599 0.83371001 -0.560592
2.5810599 0.86727703 -0.57329601
2.7098501 1.10759 -0.57329601
2.7079699 1.10759 -0.299413
2.6646399 0.83371001 -0.299413
2.85495 0.83371001 -0.059096199
2.79651 1.10759 -0.0255294
2.85495 0.86567199 -0.0255294
2.85495 1.10759 0.197669
2.85495 1.31715 -0.0255294
2.88504 1.10759 0.248354
3.1048901 0.83371001 0.248354
2.8903799 0.83371001 -0.0255294
3.12883 0.83371001 0.32631999
3.12883 1.10759 0.487333
3.12883 0.55982703 0.379278
3.06531 0.55982703 0.248354
3.12883 0.35240799 0.522237
3.1252201 0.28594401 0.522237
3.12883 0.28594401 0.57586402
3.1835301 0.55982703 0.522237
3.22525 0.28594401 0.796121
3.03883 0.55982703 -0.0255294
2.90429 0.55982703 -0.299413
2.85495 0.60435998 -0.299413
2.85495 0.55982703 -0.34608501
2.85495 1.29682 -0.299413
2.5810599 1.10759 -0.71679097
2.61516 0.55982703 -0.57329601
2.85495 0.34304699 -0.57329601
2.3071799 1.10759 -0.78044701
2.3071799 1.01706 -0.84718001
2.3071799 0.83371001 -1.02839
2.0332999 1.10759 -0.86255902
2.0989599 1.10759 -0.84718001
2.0591099 0.83371001 -1.12106
2.0332999 0.83705401 -1.12106
2.0332999 0.83371001 -1.12869
2.0332999 0.55982703 -1.2854199
2.3071799 0.71294999 -1.12106
2.3071799 0.55982703 -1.18512
2.0591099 0.28594401 -1.39495
2.0332999 0.335558 -1.39495
2.0332999 0.28594401 -1.4103301
2.0332999 0.0120602 -1.51223
2.2904601 0.0120602 -1.39495
2.0332999 -0.261823 -1.6144
1.75941 0.0120602 -1.62617
1.90558 -0.261823 -1.66883
1.75941 -0.095594198 -1.66883
1.75941 -0.261823 -1.7377
1.75941 -0.535707 -1.7476
2.0278101 -0.535707 -1.66883
1.75941 -0.710495 -1.66883
1.75941 -0.80958998 -1.6366
2.0332999 -0.535707 -1.65399
2.0332999 -0.80958998 -1.54326
1.75941 -1.08347 -1.50822
2.0332999 -1.08347 -1.43253
2.0332999 -1.14298 -1.39495
1.75941 -1.25532 -1.39495
1.75941 -1.35736 -1.2677701
2.0332999 -1.35736 -1.18084
2.0332999 -1.4051 -1.12106
1.75941 -1.46715 -1.12106
2.0332999 -1.58216 -0.84718001
1.75941 -1.58403 -0.84718001
1.75941 -1.63124 -0.74005997
2.0332999 -1.63124 -0.74915397
2.0332999 -1.70787 -0.57329601
1.75941 -1.69155 -0.57329601
2.0332999 -1.85123 -0.299413
1.75941 -1.8530999 -0.299413
1.75941 -1.90512 -0.22091199
2.0332999 -1.90512 -0.21208601
2.0332999 -2.01278 -0.0255294
1.75941 -1.99673 -0.0255294
2.0332999 -2.13849 0.248354
1.75941 -2.1403601 0.248354
1.75941 -2.1790099 0.37071899
2.0332999 -2.1790099 0.32471499
2.0332999 -2.2639301 0.522237
1.75941 -2.24788 0.522237
2.0332999 -2.3717201 0.796121
1.75941 -2.33775 0.796121
2.0332999 -2.27703 1.0700001
1.75941 -2.3917799 1.0700001
2.0332999 -2.2465401 1.34389
1.75941 -2.3877599 1.34389
2.0332999 -2.1882401 1.61777
1.75941 -2.34497 1.61777
2.0332999 -2.1790099 1.69146
1.94811 -2.1790099 1.89165
1.75941 -2.2690101 1.89165
1.75941 -2.1790099 2.14588
2.0332999 -2.1026499 1.89165
2.0332999 -2.04193 2.16554
1.75941 -2.1767299 2.16554
2.0332999 -1.90512 2.35183
1.93928 -1.90512 2.43942
1.75941 -2.0780399 2.43942
1.75941 -1.90512 2.55002
2.0082901 -1.63124 2.43942
1.75941 -1.63124 2.49332
2.0332999 -1.59473 2.43942
2.0332999 -1.35736 2.45908
1.75941 -1.35736 2.46737
2.0332999 -1.63124 2.4109399
2.24874 -1.63124 2.16554
2.3071799 -1.54231 2.16554
2.3071799 -1.35736 2.3250799
2.2067499 -1.35736 2.43942
2.3071799 -1.63124 2.09881
2.1775899 -1.90512 2.16554
2.26265 -1.90512 1.89165
2.3071799 -1.85043 1.89165
2.3071799 -1.90512 1.64947
2.04092 -2.1790099 1.61777
2.3071799 -1.90873 1.61777
2.3071799 -2.02214 1.34389
2.0885301 -2.1790099 1.34389
2.3071799 -2.1264501 1.0700001
2.2040701 -2.1790099 1.0700001
2.3071799 -2.1790099 0.93078899
2.38728 -2.1790099 0.796121
2.5810599 -2.0529001 0.796121
2.5810599 -1.9667701 1.0700001
2.5810599 -2.1387501 0.522237
2.5255599 -2.1790099 0.522237
2.3071799 -2.1790099 0.31535399
2.3071799 -2.15453 0.248354
2.5810599 -2.1526599 0.248354
2.3071799 -1.99299 -0.0255294
2.5810599 -2.0093 -0.0255294
2.3071799 -1.90512 -0.185072
2.5810599 -1.90512 -0.175978
2.3071799 -1.8317 -0.299413
2.5810599 -1.8298301 -0.299413
2.3071799 -1.706 -0.57329601
2.5810599 -1.6586601 -0.57329601
2.3071799 -1.63124 -0.72320998
2.85495 -1.95875 -0.0255294
2.85495 -2.05584 0.248354
2.3071799 -2.2620499 0.522237
2.85495 -1.96972 0.522237
2.3071799 -2.2216699 0.796121
2.81496 -1.90512 0.796121
2.6542101 -1.90512 1.0700001
2.5810599 -1.90512 1.22741
2.5159299 -1.90512 1.34389
2.5810599 -1.88012 1.34389
2.5810599 -1.7672499 1.61777
2.33272 -1.90512 1.61777
2.5810599 -1.63124 1.76314
2.471 -1.63124 1.89165
2.5810599 -1.48721 1.89165
2.7315099 -1.63124 1.61777
2.5810599 -1.35736 2.03809
2.4472001 -1.35736 2.16554
2.5810599 -1.08347 2.11432
2.51406 -1.08347 2.16554
2.3071799 -1.08347 2.40746
2.5810599 -0.94318902 2.16554
2.5810599 -0.80958998 2.21542
2.3071799 -0.80958998 2.3325701
2.5810599 -0.535707 2.2986
2.3450301 -0.535707 2.43942
2.3071799 -0.58532101 2.43942
2.3071799 -0.535707 2.54199
2.5322499 -0.261823 2.43942
2.34342 -0.261823 2.7133
2.3071799 -0.417889 2.7133
2.3071799 -0.261823 2.7546301
2.3447599 0.0120602 2.7133
2.3071799 0.0120602 2.75597
2.4993501 0.28594401 2.7133
2.3071799 0.28594401 2.8889
2.5810599 0.0120602 2.4440999
2.5810599 0.28594401 2.62009
2.5810599 0.36845601 2.7133
2.5852101 0.0120602 2.43942
2.76173 0.28594401 2.43942
2.5810599 -0.0132152 2.43942
2.5810599 -0.261823 2.34835
2.80266 -0.261823 2.16554
2.8478601 0.0120602 2.16554
2.8235199 -0.535707 2.16554
2.5810599 0.55982703 2.7551601
2.3071799 0.55982703 2.8645599
2.5810599 0.83371001 2.83834
2.3071799 0.83371001 2.84022
2.5810599 1.10759 2.88569
2.3071799 1.10759 2.8517201
2.3071799 1.38148 2.7522199
2.0332999 1.10759 2.86081
2.05937 1.38148 2.7133
2.0332999 1.36931 2.7133
2.0332999 1.38148 2.7072899
1.75941 1.38148 2.6626201
1.75941 1.27837 2.7133
2.0332999 1.65536 2.5904
1.75941 1.65536 2.5272801
2.0332999 1.92924 2.45507
1.88659 1.92924 2.43942
1.75941 1.88792 2.43942
1.75941 1.92924 2.41013
2.0332999 1.96067 2.43942
2.0332999 2.20313 2.3015399
1.75941 2.20313 2.2748001
2.0332999 2.4089401 2.16554
1.75941 2.35411 2.16554
1.75941 2.47701 2.0664401
2.0332999 2.47701 2.1113801
2.0332999 2.6961999 1.89165
1.75941 2.6951301 1.89165
1.75941 2.75089 1.80326
2.0332999 2.75089 1.79737
2.0332999 2.87272 1.61777
1.75941 2.87486 1.61777
1.75941 3.02478 1.3576601
2.0332999 3.0195601 1.34389
1.99251 3.02478 1.34389
2.0332999 3.02478 1.3295799
1.75941 3.12655 1.0700001
1.75941 3.03668 1.34389
2.0332999 3.12762 1.0700001
1.75941 3.19876 0.796121
2.0332999 3.1738901 0.796121
1.75941 3.1856599 0.522237
2.0332999 3.1642599 0.522237
1.75941 3.12708 0.248354
2.0332999 3.1468799 0.248354
1.75941 3.02478 0.0200732
2.0332999 3.02478 -0.022453601
2.0332999 3.02197 -0.0255294
1.75941 3.0102 -0.0255294
1.75941 2.8505299 -0.299413
2.0332999 2.8762 -0.299413
1.75941 2.75089 -0.47901499
2.0332999 2.75089 -0.43354601
2.0332999 2.47701 -0.57209301
2.02808 2.47701 -0.57329601
1.75941 2.6633 -0.57329601
1.75941 2.47701 -0.63574898
1.75941 2.20313 -0.682823
2.0332999 2.4132199 -0.57329601
2.0332999 2.20313 -0.61916602
1.75941 1.92924 -0.73016399
2.0332999 1.92924 -0.66623998
1.75941 1.65536 -0.79542601
2.0332999 1.65536 -0.71358103
2.0332999 1.38148 -0.77884299
1.81812 1.38148 -0.84718001
1.75941 1.40889 -0.84718001
1.75941 1.38148 -0.86095399
1.75941 1.10759 -0.94440299
2.0332999 1.14116 -0.84718001
1.48553 1.10759 -1.0631599
1.48553 1.38148 -0.94279802
1.75941 0.94323701 -1.12106
1.48553 1.0315 -1.12106
1.48553 0.83371001 -1.3111
1.75941 0.83371001 -1.22899
1.75941 0.55982703 -1.36753
1.67503 0.55982703 -1.39495
1.48553 0.69128603 -1.39495
1.48553 0.55982703 -1.44964
1.48553 0.28594401 -1.5700001
1.75941 0.51342201 -1.39495
1.75941 0.28594401 -1.50608
1.61485 0.0120602 -1.66883
1.48553 0.099922203 -1.66883
1.48553 0.0120602 -1.70828
1.21165 0.0120602 -1.79066
1.21165 0.27778599 -1.66883
1.21165 -0.261823 -1.89256
1.48553 -0.261823 -1.8101799
1.21165 -0.535707 -1.88106
1.48553 -0.535707 -1.80537
1.21165 -0.80958998 -1.76739
1.48553 -0.80958998 -1.71229
1.48553 -0.903871 -1.66883
1.21165 -1.013 -1.66883
1.21165 -1.08347 -1.6136
1.48553 -1.08347 -1.54967
1.48553 -1.27886 -1.39495
1.21165 -1.30239 -1.39495
1.21165 -1.35736 -1.29746
1.48553 -1.35736 -1.2969199
1.48553 -1.44201 -1.12106
1.21165 -1.44388 -1.12106
1.48553 -1.5677201 -0.84718001
1.21165 -1.56959 -0.84718001
1.21165 -1.63124 -0.66650802
1.48553 -1.63124 -0.71224397
1.48553 -1.6934299 -0.57329601
1.21165 -1.6953 -0.57329601
1.48553 -1.85497 -0.299413
1.21165 -1.85685 -0.299413
1.21165 -1.90512 -0.220377
1.48553 -1.90512 -0.211551
1.48553 -2.01652 -0.0255294
1.21165 -2.0004699 -0.0255294
1.48553 -2.1240399 0.248354
1.21165 -2.1259201 0.248354
1.21165 -2.1790099 0.371521
1.48553 -2.1790099 0.380348
1.48553 -2.2318299 0.522237
1.21165 -2.2337 0.522237
1.48553 -2.3217001 0.796121
1.21165 -2.30565 0.796121
1.48553 -2.37573 1.0700001
1.21165 -2.3596799 1.0700001
1.48553 -2.4294901 1.34389
1.21165 -2.3957901 1.34389
1.48553 -2.37198 1.61777
1.21165 -2.4153099 1.61777
1.48553 -2.3289199 1.89165
1.21165 -2.33935 1.89165
1.48553 -2.2532301 2.16554
1.21165 -2.3131399 2.16554
1.48553 -2.1790099 2.3831201
1.43591 -2.1790099 2.43942
1.21165 -2.2211299 2.43942
1.21165 -2.1790099 2.5288899
1.48553 -2.1606901 2.43942
1.48553 -1.90512 2.5272801
1.25885 -1.90512 2.7133
1.21165 -1.9670399 2.7133
1.21165 -1.90512 2.8415501
1.46828 -1.63124 2.7133
1.34043 -1.63124 2.98719
1.21165 -1.82876 2.98719
1.21165 -1.63124 3.21012
1.48553 -1.44147 2.98719
1.48553 -1.35736 3.1231899
1.26741 -1.35736 3.26107
1.21165 -1.43024 3.26107
1.21165 -1.35736 3.40189
1.47657 -1.08347 3.26107
1.26046 -1.08347 3.53496
1.21165 -1.14753 3.53496
1.21165 -1.08347 3.5934
1.40007 -0.80958998 3.53496
1.21165 -0.80958998 3.58992
1.21165 -0.655397 3.53496
1.21165 -0.535707 3.4976399
1.48553 -0.80958998 3.46261
1.48553 -0.535707 3.5281401
1.48553 -0.261823 3.35642
1.21165 -0.261823 3.3117599
1.48553 -0.110305 3.26107
1.21165 -0.194021 3.26107
1.21165 0.0120602 3.1400399
1.48553 0.0120602 3.18471
1.48553 0.28594401 3.06756
1.21165 0.28594401 3.00471
1.48553 0.52438802 2.98719
1.21165 0.32592899 2.98719
1.21165 0.55982703 2.90575
1.48553 0.55982703 2.9688699
1.48553 0.83371001 2.88836
1.21165 0.83371001 2.84343
1.48553 1.10759 2.7894001
1.21165 1.10759 2.74473
1.48553 1.22247 2.7133
1.21165 1.15052 2.7133
1.21165 1.38148 2.5727501
1.48553 1.38148 2.5994999
1.48553 1.65536 2.4823501
1.22007 1.65536 2.43942
1.21165 1.65255 2.43942
1.21165 1.65536 2.4374199
1.48553 1.79725 2.43942
1.48553 1.92924 2.3652
1.21165 1.92924 2.3202701
1.48553 2.20313 2.2298601
1.21165 2.20313 2.1849301
1.48553 2.2995501 2.16554
1.21165 2.2444501 2.16554
1.21165 2.47701 2.0129499
1.48553 2.47701 2.0397
1.48553 2.6403 1.89165
1.21165 2.6215799 1.89165
1.21165 2.75089 1.7682199
1.48553 2.75089 1.77651
1.48553 2.87379 1.61777
1.21165 2.8729899 1.61777
1.21165 3.02478 1.37692
1.48553 3.02478 1.36729
1.48553 3.03561 1.34389
1.21165 3.0348101 1.34389
1.21165 3.16078 1.0700001
1.48553 3.1436701 1.0700001
1.21165 3.17255 0.796121
1.48553 3.2000999 0.796121
1.21165 3.1139801 0.522237
1.48553 3.1581099 0.522237
1.21165 3.0414901 0.248354
1.48553 3.0864301 0.248354
1.21165 3.02478 0.22628801
1.48553 3.02478 0.123047
1.48553 2.9599199 -0.0255294
1.21165 2.9000101 -0.0255294
1.21165 2.75424 -0.299413
1.48553 2.82003 -0.299413
1.21165 2.75089 -0.30275601
1.48553 2.75089 -0.43060401
1.48553 2.67801 -0.57329601
1.21165 2.6082001 -0.57329601
1.21165 2.47701 -0.78151703
1.48553 2.47701 -0.717861
1.21165 2.20313 -0.82859099
1.48553 2.20313 -0.76493502
1.48553 1.92924 -0.81200802
1.33455 1.92924 -0.84718001
1.21165 2.0697999 -0.84718001
1.21165 1.92924 -0.87566501
1.21165 1.65536 -0.94119298
1.48553 1.71246 -0.84718001
1.48553 1.65536 -0.85908198
1.21165 1.38148 -1.0067199
0.93776202 1.38148 -1.08857
0.93776202 1.65536 -1.00485
1.21165 1.1556 -1.12106
0.93776202 1.27997 -1.12106
0.93776202 1.10759 -1.2455699
1.21165 1.10759 -1.145
1.21165 0.83371001 -1.3932101
1.20456 0.83371001 -1.39495
0.93776202 0.95741302 -1.39495
0.93776202 0.83371001 -1.47532
0.93776202 0.55982703 -1.61387
1.21165 0.81538898 -1.39495
1.21165 0.55982703 -1.53175
1.21165 0.28594401 -1.65211
1.14679 0.28594401 -1.66883
0.93776202 0.43773001 -1.66883
0.93776202 0.28594401 -1.73423
0.66387802 0.28594401 -1.81634
0.66387802 0.55982703 -1.69598
0.78062701 0.55982703 -1.66883
0.66387802 0.61559302 -1.66883
0.38999501 0.55982703 -1.77809
0.38999501 0.77580398 -1.66883
0.38999501 0.83371001 -1.63954
0.66387802 0.83371001 -1.55743
0.38999501 1.10759 -1.46435
0.53135002 1.10759 -1.39495
0.66387802 1.08178 -1.39495
0.66387802 1.10759 -1.36405
0.38999501 1.38148 -1.2343301
0.66387802 1.38148 -1.15249
0.38999501 1.15213 -1.39495
0.38999501 1.65536 -1.15062
0.51717401 1.65536 -1.12106
0.66387802 1.49395 -1.12106
0.66387802 1.65536 -1.08696
0.38999501 1.92924 -1.08509
0.66387802 1.92924 -1.02143
0.38999501 1.7796 -1.12106
0.38999501 2.20313 -1.02036
0.66387802 2.20313 -0.97435898
0.38999501 2.2824299 -0.84718001
0.66387802 2.36748 -0.84718001
0.38999501 2.42205 -0.57329601
0.61640298 2.47701 -0.57329601
0.66387802 2.47701 -0.598037
0.38999501 2.47701 -0.43113899
0.38999501 2.5341101 -0.299413
0.66387802 2.61917 -0.299413
0.66387802 2.49774 -0.57329601
0.38999501 2.67346 -0.0255294
0.65732598 2.75089 -0.0255294
0.66387802 2.75089 -0.035826799
0.38999501 2.75089 0.158085
0.38999501 2.80827 0.248354
0.66387802 2.87781 0.248354
0.66387802 2.75878 -0.0255294
0.38999501 2.91552 0.522237
0.66387802 3.00913 0.522237
0.38999501 3.0235701 0.796121
0.40296701 3.02478 0.796121
0.66387802 3.02478 0.59779602
0.38999501 3.02478 0.810965
0.38999501 3.0987301 1.0700001
0.66387802 3.1428599 1.0700001
0.66387802 3.08429 0.796121
0.38999501 3.0318699 1.34389
0.66387802 3.03267 1.34389
0.38999501 3.02478 1.35151
0.66387802 3.02478 1.36007
0.38999501 2.81602 1.61777
0.66387802 2.8350101 1.61777
0.38999501 2.75089 1.66979
0.66387802 2.75089 1.69654
0.38999501 2.47701 1.87842
0.44763401 2.47701 1.89165
0.66387802 2.51191 1.89165
0.66387802 2.47701 1.92335
0.38999501 2.20313 2.05039
0.66387802 2.20313 2.09533
0.38999501 2.45682 1.89165
0.38999501 1.92924 2.1547101
0.46073899 1.92924 2.16554
0.66387802 2.0451901 2.16554
0.66387802 1.92924 2.23067
0.38999501 1.65536 2.24698
0.66387802 1.65536 2.3408599
0.38999501 1.85288 2.16554
0.38999501 1.38148 2.3571801
0.66387802 1.38148 2.4333999
0.38999501 1.19118 2.43942
0.66387802 1.3767999 2.43942
0.38999501 1.10759 2.46737
0.66387802 1.10759 2.5789001
0.38999501 0.83371001 2.5952201
0.63084698 0.83371001 2.7133
0.66387802 0.87690598 2.7133
0.66387802 0.83371001 2.7244
0.38999501 0.55982703 2.7532899
0.66387802 0.55982703 2.79796
0.38999501 0.62736201 2.7133
0.38999501 0.28594401 2.8522501
0.66387802 0.28594401 2.9151101
0.38999501 0.034660898 2.98719
0.66387802 0.143786 2.98719
0.38999501 0.0120602 3.02423
0.66387802 0.0120602 3.0504401
0.38999501 -0.261823 3.1240001
0.66387802 -0.261823 3.19996
0.38999501 -0.535707 3.2339201
0.458332 -0.535707 3.26107
0.66387802 -0.440088 3.26107
0.66387802 -0.535707 3.30988
0.38999501 -0.80958998 3.3438499
0.66387802 -0.80958998 3.4377301
0.38999501 -0.60190398 3.26107
0.38999501 -1.08347 3.29357
0.66387802 -1.08347 3.45298
0.38999501 -1.16839 3.26107
0.50808001 -1.35736 3.26107
0.66387802 -1.35736 3.3521399
0.38999501 -1.35736 3.1568899
0.38999501 -1.62709 2.98719
0.39173299 -1.63124 2.98719
0.66387802 -1.63124 3.20557
0.66387802 -1.5447201 3.26107
0.38999501 -1.63124 2.9841101
0.38999501 -1.90512 2.8471701
0.66387802 -1.90512 2.9758201
0.66387802 -1.89911 2.98719
0.38999501 -2.0978301 2.7133
0.60062301 -2.1790099 2.7133
0.66387802 -2.1790099 2.7198601
0.38999501 -2.1790099 2.64657
0.38999501 -2.3345399 2.43942
0.66387802 -2.3075199 2.43942
0.66387802 -2.1852901 2.7133
0.38999501 -2.3441701 2.16554
0.66387802 -2.3669 2.16554
0.38999501 -2.3706501 1.89165
0.66387802 -2.3933799 1.89165
0.38999501 -2.36396 1.61777
0.66387802 -2.3998001 1.61777
0.38999501 -2.32411 1.34389
0.66387802 -2.3457699 1.34389
0.38999501 -2.2516201 1.0700001
0.66387802 -2.30966 1.0700001
0.38999501 -2.1790099 0.80775601
0.392001 -2.1790099 0.796121
0.66387802 -2.25564 0.796121
0.66387802 -2.2016101 0.522237
0.55435199 -2.1790099 0.522237
0.66387802 -2.1790099 0.427154
0.38999501 -1.98362 0.248354
0.66387802 -2.11201 0.248354
0.38999501 -2.08954 0.522237
0.38999501 -1.90512 0.085066997
0.46635601 -1.90512 -0.0255294
0.66387802 -2.00422 -0.0255294
0.66387802 -1.90512 -0.219842
0.38999501 -1.7386301 -0.299413
0.66387802 -1.86032 -0.299413
0.38999501 -1.84454 -0.0255294
0.38999501 -1.63124 -0.51432002
0.44148201 -1.63124 -0.57329601
0.66387802 -1.6987799 -0.57329601
0.66387802 -1.63124 -0.68415999
0.38999501 -1.37809 -0.84718001
0.66387802 -1.55515 -0.84718001
0.38999501 -1.58323 -0.57329601
0.38999501 -1.35736 -0.88876998
0.57120198 -1.35736 -1.12106
0.66387802 -1.42997 -1.12106
0.66387802 -1.35736 -1.24049
0.38999501 -1.08347 -1.28836
0.483206 -1.08347 -1.39495
0.66387802 -1.2545201 -1.39495
0.38999501 -1.18926 -1.12106
0.66387802 -1.08347 -1.6269701
0.38999501 -0.80958998 -1.66308
0.394943 -0.80958998 -1.66883
0.66387802 -1.06569 -1.66883
0.38999501 -1.00069 -1.39495
0.66387802 -0.80958998 -1.8503
0.38999501 -0.535707 -1.8947001
0.66387802 -0.535707 -1.90781
0.38999501 -0.79528099 -1.66883
0.38999501 -0.261823 -1.91664
0.56103802 -0.261823 -1.94271
0.66387802 -0.29592499 -1.94271
0.66387802 -0.261823 -1.94766
0.66387802 -0.099873699 -1.94271
0.93776202 -0.246177 -1.94271
0.93776202 -0.261823 -1.94552
0.66387802 0.0120602 -1.9126199
0.93776202 0.0120602 -1.85432
1.03953 -0.261823 -1.94271
0.93776202 -0.38686299 -1.94271
0.38999501 0.0120602 -1.92814
0.38999501 0.28594401 -1.87973
0.116112 0.0120602 -1.90754
0.116112 0.28594401 -1.8594
0.116112 0.55982703 -1.82891
-0.157772 0.28594401 -1.8388
-0.157772 0.55982703 -1.79654
-0.157772 0.83371001 -1.7296799
0.116112 0.83371001 -1.72165
-0.157772 1.07804 -1.66883
0.116112 0.953668 -1.66883
-0.157772 1.10759 -1.64703
0.116112 1.10759 -1.54647
-0.157772 1.38148 -1.39856
-0.147742 1.38148 -1.39495
0.116112 1.25831 -1.39495
0.116112 1.38148 -1.31645
-0.157772 1.65536 -1.2963901
0.116112 1.65536 -1.23273
-0.157772 1.3826801 -1.39495
-0.157772 1.92924 -1.23086
0.116112 1.92924 -1.1672
-0.157772 1.99598 -1.12106
0.116112 2.0660501 -1.12106
-0.157772 2.1123199 -0.84718001
0.116112 2.1973801 -0.84718001
-0.157772 2.20313 -0.63173699
0.116112 2.20313 -0.82618397
-0.157772 2.2302699 -0.57329601
0.116112 2.32897 -0.57329601
-0.157772 2.36374 -0.299413
0.116112 2.4487901 -0.299413
-0.157772 2.47701 -0.0430484
0.116112 2.47701 -0.26718301
-0.157772 2.4937301 -0.0255294
0.116112 2.56354 -0.0255294
-0.157772 2.63976 0.248354
0.116112 2.7002101 0.248354
-0.157772 2.75089 0.485194
0.116112 2.75089 0.351996
-0.157772 2.78179 0.522237
0.116112 2.83956 0.522237
-0.157772 2.8861001 0.796121
0.116112 2.9302299 0.796121
-0.157772 2.94467 1.0700001
0.116112 3.0216999 1.0700001
-0.157772 2.9853301 1.34389
0.116112 3.0128801 1.34389
-0.157772 2.75089 1.59811
-0.073119499 2.75089 1.61777
0.116112 2.77911 1.61777
0.116112 2.75089 1.64305
-0.157772 2.47701 1.78855
0.116112 2.47701 1.83348
-0.157772 2.7063601 1.61777
-0.157772 2.3110499 1.89165
0.116112 2.3840699 1.89165
-0.157772 2.20313 1.94555
0.116112 2.20313 2.00386
-0.157772 1.92924 2.0378201
0.116112 1.92924 2.0961299
-0.157772 1.65536 2.1303699
0.0311916 1.65536 2.16554
0.116112 1.69294 2.16554
0.116112 1.65536 2.1886699
-0.157772 1.38148 2.22264
0.116112 1.38148 2.2809501
-0.157772 1.533 2.16554
-0.157772 1.10759 2.3151801
0.116112 1.10759 2.39114
-0.157772 0.83371001 2.4251101
-0.147475 0.83371001 2.43942
0.116112 1.00582 2.43942
0.116112 0.83371001 2.51899
-0.157772 0.55982703 2.53531
0.116112 0.55982703 2.61127
-0.157772 0.82020301 2.43942
-0.157772 0.28594401 2.6452401
0.0146088 0.28594401 2.7133
0.116112 0.39012101 2.7133
0.116112 0.28594401 2.7746899
0.116112 0.0120602 2.9201901
-0.134101 0.0120602 2.7133
-0.119123 -0.261823 2.7133
-0.019626601 -0.261823 2.98719
0.116112 -0.108967 2.98719
0.116112 -0.261823 3.04777
0.116112 -0.535707 3.1400399
-0.0046485998 -0.535707 2.98719
0.116112 -0.80958998 3.1467299
0.0293194 -0.80958998 2.98719
-0.10468 -0.80958998 2.7133
-0.106552 -0.535707 2.7133
-0.157772 -0.80958998 2.5885301
-0.157772 -0.535707 2.6326599
-0.157772 -0.261823 2.6468401
-0.25018099 -0.261823 2.43942
-0.235203 -0.535707 2.43942
-0.35208499 -0.535707 2.16554
-0.353957 -0.261823 2.16554
-0.43165499 -0.535707 1.98353
-0.43165499 -0.261823 1.9977
-0.40103099 0.0120602 2.16554
-0.43165499 0.0120602 2.10202
-0.43165499 0.159834 2.16554
-0.43165499 0.28594401 2.2065899
-0.26515901 0.0120602 2.43942
-0.31383699 0.28594401 2.43942
-0.157772 0.0120602 2.66102
-0.383378 0.55982703 2.43942
-0.43165499 0.55982703 2.3413999
-0.43165499 0.83371001 2.3491499
-0.56953299 0.83371001 2.16554
-0.52245998 0.55982703 2.16554
-0.65324998 0.55982703 1.89165
-0.70032299 0.83371001 1.89165
-0.70553899 0.55982703 1.81235
-0.70553899 0.83371001 1.88671
-0.70553899 0.83839101 1.89165
-0.768794 1.10759 1.89165
-0.91001499 1.10759 1.61777
-0.85625499 0.83371001 1.61777
-0.70553899 1.10759 2.0215099
-0.70553899 1.38148 2.10603
-0.85866201 1.38148 1.89165
-0.70553899 1.65536 2.0137501
-0.96965998 1.65536 1.89165
-0.97942197 1.38148 1.7174
-0.97942197 1.65536 1.88243
-0.84796298 1.92924 1.89165
-0.97942197 1.92924 1.84525
-0.70553899 2.0120201 1.89165
-0.70553899 2.20313 1.81101
-0.97942197 2.20313 1.73505
-0.70553899 1.92924 1.9212101
-0.43165499 1.92924 1.99744
-0.43165499 2.1714301 1.89165
-0.43165499 1.65536 2.0720601
-0.70553899 2.47701 1.70082
-0.96671802 2.47701 1.61777
-0.97942197 2.46029 1.61777
-0.97942197 2.47701 1.60694
-0.70553899 2.6322701 1.61777
-0.70553899 2.75089 1.5267
-0.97942197 2.75089 1.42373
-0.70553899 2.88503 1.34389
-0.97942197 2.81549 1.34389
-0.97942197 2.84571 1.0700001
-0.70553899 2.88957 1.0700001
-0.97942197 2.7521 0.796121
-0.70553899 2.8219099 0.796121
-0.97942197 2.75089 0.79491699
-0.70553899 2.75089 0.66145301
-0.70553899 2.6753399 0.522237
-0.97942197 2.6344099 0.522237
-0.97942197 2.4878399 0.248354
-0.70553899 2.55498 0.248354
-0.97942197 2.47701 0.23698699
-0.70553899 2.47701 0.103522
-0.70553899 2.4156301 -0.0255294
-0.97942197 2.3415401 -0.0255294
-0.97942197 2.20313 -0.254345
-0.70553899 2.26531 -0.299413
-0.93997103 2.20313 -0.299413
-0.70553899 2.20313 -0.39449599
-0.97942197 1.92924 -0.55631202
-0.97942197 2.1561899 -0.299413
-0.70553899 2.10938 -0.57329601
-0.942913 1.92924 -0.57329601
-0.70553899 1.92924 -0.82029998
-0.97942197 1.65536 -0.74353701
-0.97942197 1.89915 -0.57329601
-0.70553899 1.8922 -0.84718001
-0.84154397 1.65536 -0.84718001
-0.70553899 1.65536 -0.96981198
-0.97942197 1.38148 -0.881549
-0.97942197 1.41585 -0.84718001
-0.70553899 1.4340301 -1.12106
-0.745525 1.38148 -1.12106
-0.70553899 1.38148 -1.16105
-0.70553899 1.10759 -1.31698
-0.906003 1.10759 -1.12106
-0.97942197 0.83371001 -1.1885999
-0.97942197 0.92665398 -1.12106
-0.70553899 0.97613502 -1.39495
-0.79179603 0.83371001 -1.39495
-0.97942197 1.10759 -1.03695
-1.0384001 0.83371001 -1.12106
-1.16357 0.83371001 -0.84718001
-1.14485 1.10759 -0.84718001
-1.25331 1.10759 -0.72294301
-1.21974 0.83371001 -0.57329601
-1.25331 0.91328102 -0.57329601
-1.25331 0.83371001 -0.425255
-1.10446 0.55982703 -0.57329601
-1.19914 0.55982703 -0.299413
-1.25331 0.68887901 -0.299413
-1.21626 0.55982703 -0.0255294
-1.25331 0.606767 -0.0255294
-1.25331 0.55982703 0.144979
-1.12666 0.28594401 -0.0255294
-1.1181 0.28594401 0.248354
-1.25331 0.53508699 0.248354
-1.14645 0.28594401 0.522237
-1.25331 0.463406 0.522237
-1.25331 0.55982703 0.707991
-1.15528 0.28594401 0.796121
-1.2398 0.55982703 0.796121
-1.03037 0.28594401 1.0700001
-1.0785201 0.55982703 1.0700001
-0.97942197 0.28594401 1.17846
-0.97942197 0.55982703 1.28277
-0.97942197 0.76296598 1.34389
-0.99373102 0.83371001 1.34389
-1.15635 0.83371001 1.0700001
-0.97942197 0.83371001 1.38735
-0.97942197 1.10759 1.52215
-1.10473 1.10759 1.34389
-0.97942197 1.25697 1.61777
-1.04081 1.38148 1.61777
-1.21573 1.38148 1.34389
-1.25331 1.10759 1.1131999
-1.25331 1.38148 1.27823
-1.25331 1.5022399 1.34389
-1.32672 1.65536 1.34389
-1.48908 1.65536 1.0700001
-1.37808 1.38148 1.0700001
-1.25331 1.65536 1.4432499
-1.25331 1.92924 1.6082799
-1.40589 1.92924 1.34389
-1.25331 1.9382 1.61777
-1.3072 2.20313 1.61777
-1.42916 2.20313 1.34389
-1.25331 2.20313 1.64117
-1.25331 2.2425799 1.61777
-1.52719 1.92924 1.10865
-1.51876 2.20313 1.0700001
-1.52719 2.16555 1.0700001
-1.52719 2.20313 1.03269
-1.4297 2.47701 1.0700001
-1.40616 2.47701 0.796121
-1.52719 2.3297701 0.796121
-1.52719 2.2599599 0.522237
-1.35989 2.47701 0.522237
-1.52719 2.20313 0.41110599
-1.25331 2.47701 0.38649899
-1.25331 2.3947699 0.248354
-1.4428 2.20313 0.248354
-1.25331 2.20313 0.034516301
-1.52719 1.92924 0.077578001
-1.52719 2.092 0.248354
-1.25331 2.1503 -0.0255294
-1.43505 1.92924 -0.0255294
-1.25331 1.92924 -0.26745099
-1.52719 1.65536 -0.149499
-1.52719 1.80795 -0.0255294
-1.25331 1.88097 -0.299413
-1.40161 1.65536 -0.299413
-1.25331 1.65536 -0.44424501
-1.25331 1.45891 -0.57329601
-1.27323 1.38148 -0.57329601
-1.50646 1.38148 -0.299413
-1.25331 1.38148 -0.596165
-1.31603 1.10759 -0.57329601
-1.1408401 1.65536 -0.57329601
-1.0055 1.38148 -0.84718001
-1.41044 1.10759 -0.299413
-1.52719 1.38148 -0.25514799
-1.50486 1.10759 -0.0255294
-1.52719 1.2058901 -0.0255294
-1.52719 1.10759 0.054576099
-1.37968 0.83371001 -0.0255294
-1.44494 0.83371001 0.248354
-1.52719 1.02695 0.248354
-1.44468 0.83371001 0.522237
-1.52719 1.01973 0.522237
-1.52719 1.10759 0.67402297
-1.3508 0.83371001 0.796121
-1.46153 1.10759 0.796121
-1.25331 0.83371001 0.91821802
-1.25331 1.03712 1.0700001
-1.2670799 1.10759 1.0700001
-1.52719 1.38148 0.83904898
-1.52719 1.28265 0.796121
-1.57252 1.38148 0.796121
-1.68914 1.38148 0.522237
-1.57894 1.10759 0.522237
-1.56102 1.10759 0.248354
-1.6763 1.38148 0.248354
-1.7049201 1.65536 0.522237
-1.7544 1.65536 0.248354
-1.60114 1.38148 -0.0255294
-1.6212 1.65536 -0.0255294
-1.62869 1.92924 0.248354
-1.72097 1.92924 0.522237
-1.64126 1.65536 0.796121
-1.63859 1.92924 0.796121
-1.52719 1.65536 1.03403
-1.52719 1.80527 1.0700001
-1.5401599 1.92924 1.0700001
-1.5858999 2.20313 0.796121
-1.57012 2.20313 0.522237
-1.25331 0.62976903 0.796121
-1.31014 0.55982703 0.522237
-1.26307 0.55982703 0.248354
-1.31442 0.83371001 -0.299413
-1.2036901 1.92924 -0.299413
-1.20102 2.20313 -0.0255294
-1.25331 2.53599 0.522237
-1.01887 2.47701 0.248354
-1.25331 2.6352201 0.796121
-1.25331 2.6916499 1.0700001
-1.3853 2.47701 1.34389
-1.25331 2.69941 1.34389
-1.25331 2.47701 1.49541
-1.13174 2.75089 1.34389
-1.2044899 2.75089 1.0700001
-1.02235 2.75089 0.796121
-1.24756 1.92924 1.61777
-1.13281 1.65536 1.61777
-0.94371599 0.55982703 1.34389
-0.80918097 0.55982703 1.61777
-0.89664203 0.28594401 1.34389
-0.73964 0.28594401 1.61777
-0.70553899 0.28594401 1.70777
-0.70553899 0.0838743 1.61777
-0.69015998 0.0120602 1.61777
-0.55803198 0.0120602 1.89165
-0.60617602 0.28594401 1.89165
-0.70553899 0.0120602 1.6031899
-0.70553899 -0.261823 1.46866
-0.64308602 -0.261823 1.61777
-0.70553899 -0.535707 1.36435
-0.59627998 -0.535707 1.61777
-0.465222 -0.535707 1.89165
-0.48019999 -0.261823 1.89165
-0.57354498 -0.80958998 1.61777
-0.46174499 -0.80958998 1.89165
-0.43165499 -0.80958998 1.96962
-0.43165499 -1.08347 1.92549
-0.43713799 -1.08347 1.89165
-0.43165499 -1.31871 1.89165
-0.43165499 -1.35736 1.88162
-0.56659102 -1.08347 1.61777
-0.45960501 -1.35736 1.61777
-0.48019999 -1.35736 1.34389
-0.59547698 -1.08347 1.34389
-0.46228001 -1.35736 1.0700001
-0.57755703 -1.08347 1.0700001
-0.43446401 -1.35736 0.796121
-0.55963701 -1.08347 0.796121
-0.43165499 -1.35736 0.74490201
-0.54171699 -1.08347 0.522237
-0.43165499 -1.27083 0.522237
-0.43165499 -1.1745501 0.248354
-0.48608401 -1.08347 0.248354
-0.43165499 -1.08347 0.0013507199
-0.66769302 -0.80958998 0.248354
-0.62088603 -0.80958998 -0.0255294
-0.43165499 -1.06194 -0.0255294
-0.43165499 -0.98063397 -0.299413
-0.55589199 -0.80958998 -0.299413
-0.43165499 -0.80958998 -0.57182503
-0.70553899 -0.535707 -0.42124301
-0.67223901 -0.535707 -0.57329601
-0.43165499 -0.80491 -0.57329601
-0.70553899 -0.57007599 -0.299413
-0.43165499 -0.59976399 -0.84718001
-0.49624801 -0.535707 -0.84718001
-0.43165499 -0.535707 -0.921134
-0.70553899 -0.261823 -0.89117801
-0.58424401 -0.261823 -1.12106
-0.43165499 -0.39461899 -1.12106
-0.70553899 -0.29967001 -0.84718001
-0.43165499 -0.261823 -1.29585
-0.70553899 0.0120602 -1.28141
-0.60644299 0.0120602 -1.39495
-0.43165499 -0.189207 -1.39495
-0.70553899 -0.107898 -1.12106
-0.43165499 0.0120602 -1.62029
-0.70553899 0.28594401 -1.43039
-0.48474699 0.28594401 -1.66883
-0.43165499 0.082269497 -1.66883
-0.70553899 0.163579 -1.39495
-0.43165499 0.28594401 -1.70801
-0.43165499 0.44281101 -1.66883
-0.157772 0.0120602 -1.85137
-0.403705 0.0120602 -1.66883
-0.157772 -0.25446799 -1.66883
0.116112 -0.261823 -1.90353
-0.149882 -0.261823 -1.66883
-0.157772 -0.261823 -1.65987
0.111698 -0.535707 -1.66883
-0.088097498 -0.535707 -1.39495
-0.157772 -0.47619599 -1.39495
-0.157772 -0.535707 -1.2851501
0.116112 -0.73001897 -1.39495
0.116112 -0.80958998 -1.29933
-0.0177543 -0.80958998 -1.12106
-0.157772 -0.66502601 -1.12106
-0.157772 -0.80958998 -0.93557698
0.116112 -0.93543202 -1.12106
0.116112 -1.08347 -0.92461097
0.063287303 -1.08347 -0.84718001
-0.157772 -0.88675398 -0.84718001
-0.125275 -1.08347 -0.57329601
-0.157772 -1.07532 -0.57329601
-0.157772 -1.08347 -0.53598499
0.116112 -1.31282 -0.57329601
0.116112 -1.35736 -0.52528697
-0.059478801 -1.35736 -0.299413
-0.157772 -1.24756 -0.299413
-0.157772 -1.35736 -0.117938
0.116112 -1.51797 -0.299413
0.116112 -1.63124 -0.12195
0.052856199 -1.63124 -0.0255294
-0.157772 -1.3853101 -0.0255294
-0.049047701 -1.63124 0.248354
-0.157772 -1.51289 0.248354
-0.157772 -1.63124 0.48198399
0.116112 -1.81218 0.248354
0.116112 -1.90512 0.498299
0.095115602 -1.90512 0.522237
-0.157772 -1.6608 0.522237
-0.016149599 -1.90512 0.796121
-0.157772 -1.74505 0.796121
-0.118053 -1.90512 1.0700001
-0.157772 -1.85096 1.0700001
-0.157772 -1.90512 1.16803
0.116112 -2.1296599 1.0700001
0.116112 -2.1790099 1.2472
0.067031801 -2.1790099 1.34389
-0.157772 -1.96945 1.34389
-0.066700302 -2.1790099 1.61777
-0.157772 -2.0290899 1.61777
-0.054931901 -2.1790099 1.89165
-0.157772 -1.98015 1.89165
-0.157772 -1.90512 2.0803499
0.0231677 -2.1790099 2.16554
-0.100401 -1.90512 2.16554
0.116112 -2.1790099 2.3250799
0.116112 -2.04006 2.43942
0.063554801 -1.90512 2.43942
0.116112 -1.90512 2.5195301
0.116112 -1.63124 2.65379
-0.029255301 -1.63124 2.43942
0.116112 -1.5738699 2.7133
0.036808401 -1.35736 2.7133
-0.144265 -1.35736 2.43942
0.116112 -1.35736 2.84797
0.116112 -1.10795 2.98719
0.099127501 -1.08347 2.98719
-0.0576065 -1.08347 2.7133
0.116112 -1.08347 3.01246
0.218684 -1.35736 2.98719
-0.157772 -1.63124 2.24564
-0.157772 -1.35736 2.41013
-0.157772 -1.2711 2.43942
-0.205247 -1.08347 2.43942
-0.32560599 -1.08347 2.16554
-0.28976601 -1.35736 2.16554
-0.157772 -1.08347 2.5141799
-0.22022501 -0.80958998 2.43942
-0.35021201 -0.80958998 2.16554
-0.21086399 -1.63124 2.16554
-0.32400101 -1.63124 1.89165
-0.42082301 -1.35736 1.89165
-0.43165499 -1.42409 1.61777
-0.34432799 -1.63124 1.61777
-0.43165499 -1.42703 1.34389
-0.34566599 -1.63124 1.34389
-0.43165499 -1.43024 1.0700001
-0.31811699 -1.63124 1.0700001
-0.43165499 -1.36471 0.796121
-0.252855 -1.63124 0.796121
-0.36947 -1.35736 0.522237
-0.169407 -1.63124 0.522237
-0.183047 -1.90512 1.34389
-0.209794 -1.90512 1.61777
-0.189466 -1.90512 1.89165
-0.157772 -1.73729 2.16554
0.147539 -1.63124 2.7133
0.256129 -1.90512 2.7133
0.116112 -2.3380101 2.16554
0.17883199 -2.1790099 2.43942
0.116112 -2.3313301 1.89165
0.116112 -2.2751601 1.61777
0.116112 -2.2189901 1.34389
0.22965001 -2.1790099 1.0700001
0.116112 -2.04059 0.796121
0.38999501 -2.1786101 0.796121
0.116112 -1.93468 0.522237
0.29089901 -1.90512 0.248354
0.116112 -1.68567 -0.0255294
-0.30420899 -1.35736 0.248354
-0.18385001 -1.35736 -0.0255294
0.245965 -1.63124 -0.299413
0.15797 -1.35736 -0.57329601
-0.42082301 -1.08347 -0.0255294
-0.337374 -1.08347 -0.299413
0.116112 -1.1239901 -0.84718001
0.360975 -1.35736 -0.84718001
0.26575801 -1.08347 -1.12106
-0.43045199 -0.80958998 -0.57329601
-0.234935 -0.80958998 -0.84718001
0.19969399 -0.80958998 -1.39495
0.116112 -0.54119003 -1.66883
-0.30099899 -0.535707 -1.12106
0.116112 -0.535707 -1.67405
-0.36706299 -0.261823 -1.39495
-0.70553899 0.55982703 -1.52159
-0.43165499 0.55982703 -1.65907
-0.70553899 0.83371001 -1.45472
-0.43165499 0.83371001 -1.6101201
-0.62757301 1.10759 -1.39495
-0.43165499 1.10759 -1.54326
-0.485549 1.38148 -1.39495
-0.43165499 1.38148 -1.44082
-0.43165499 1.45222 -1.39495
-0.31597701 0.83371001 -1.66883
-0.38658801 0.55982703 -1.66883
-0.85892999 0.55982703 -1.39495
-0.736431 0.28594401 -1.39495
-0.85759199 0.28594401 -1.12106
-0.97286898 0.55982703 -1.12106
-0.97942197 0.55982703 -1.06663
-0.93301702 0.28594401 -0.84718001
-0.97942197 0.39653999 -0.84718001
-0.97942197 0.28594401 -0.70288301
-0.81747299 0.0120602 -0.84718001
-0.89316499 0.0120602 -0.57329601
-0.97942197 0.21733899 -0.57329601
-0.97942197 0.0120602 -0.37497199
-0.79687798 -0.261823 -0.57329601
-0.88246602 -0.261823 -0.299413
-0.97942197 -0.053067401 -0.299413
-0.91081798 -0.261823 -0.0255294
-0.97942197 -0.087570302 -0.0255294
-0.92044598 -0.261823 0.248354
-0.97942197 -0.112444 0.248354
-0.90680599 -0.261823 0.522237
-0.97942197 -0.089442603 0.522237
-0.90546799 -0.261823 0.796121
-0.97942197 -0.086500399 0.796121
-0.923388 -0.261823 1.0700001
-0.97942197 0.0084493803 1.0700001
-0.97942197 0.0120602 1.07388
-0.77387601 -0.261823 1.34389
-0.82683402 0.0120602 1.34389
-0.80811101 -0.535707 1.0700001
-0.72706997 -0.535707 1.34389
-0.70553899 -0.77950001 1.0700001
-0.70553899 -0.584252 1.34389
-0.70553899 -0.736974 0.796121
-0.80944902 -0.535707 0.796121
-0.70553899 -0.69444698 0.522237
-0.77227098 -0.535707 0.522237
-0.70553899 -0.72707701 0.248354
-0.81265801 -0.535707 0.248354
-0.70553899 -0.68856299 -0.0255294
-0.784307 -0.535707 -0.0255294
-0.719046 -0.535707 -0.299413
-0.65699399 -0.80958998 0.522237
-0.674914 -0.80958998 0.796121
-0.69283402 -0.80958998 1.0700001
-0.68507802 -0.80958998 1.34389
-0.98356801 0.0120602 1.0700001
-1.02075 0.0120602 0.796121
-1.01994 0.0120602 0.522237
-1.0285 0.0120602 0.248354
-1.01861 0.0120602 -0.0255294
-1.00684 0.0120602 -0.299413
-1.10286 0.28594401 -0.299413
-0.70553899 -0.498395 -0.57329601
-0.72145301 -0.261823 -0.84718001
-1.00844 0.28594401 -0.57329601
-0.76130497 0.0120602 -1.12106
-1.02904 0.55982703 -0.84718001
-0.97942197 0.57547402 -1.12106
-0.55936998 1.65536 -1.12106
-0.43165499 1.65536 -1.2848901
-0.43165499 1.88765 -1.12106
-0.68186802 1.92924 -0.84718001
-0.43165499 1.92924 -1.02651
-0.43165499 2.0272701 -0.84718001
-0.30688301 1.92924 -1.12106
-0.43165499 2.1602001 -0.57329601
-0.43165499 2.20313 -0.49024901
-0.26569399 2.20313 -0.57329601
-0.43165499 2.3062401 -0.299413
-0.43165499 2.42365 -0.0255294
-0.43165499 2.47701 0.0302369
-0.22450399 2.47701 -0.0255294
-0.43165499 2.5849299 0.248354
-0.43165499 2.7451401 0.522237
-0.43165499 2.75089 0.52798802
-0.38685501 2.75089 0.522237
-0.43165499 2.8585501 0.796121
-0.43165499 2.91712 1.0700001
-0.43165499 2.9312999 1.34389
-0.43165499 2.75089 1.55345
-0.43165499 2.6873701 1.61777
-0.43165499 2.47701 1.7620699
-0.43165499 2.20313 1.8872401
-0.37455201 2.20313 1.89165
-0.43165499 1.38148 2.16433
-0.376156 1.38148 2.16554
-0.43165499 1.37332 2.16554
-0.61660701 1.10759 2.16554
-0.43165499 1.10759 2.25688
