# .PCD v0.7 - Point Cloud Data file format
VERSION 0.7
FIELDS x y z rgb
SIZE 4 4 4 4
TYPE F F F F
COUNT 1 1 1 1
WIDTH 1067
HEIGHT 1
VIEWPOINT 0 0 0 1 0 0 0
POINTS 1067
DATA ascii
-0.20896739 0.058677834 1.0420001 1.1709543e-38
-0.20568277 0.058565203 1.04 1.2444588e-38
-0.20260426 0.058508895 1.039 1.2075455e-38
-0.19933905 0.058396265 1.0369999 1.3458031e-38
-0.19608493 0.058283642 1.035 1.3827886e-38
-0.19302861 0.058227334 1.034 1.3093565e-38
-0.18961 0.058058392 1.031 1.3736785e-38
-0.18657029 0.058002077 1.03 1.4470751e-38
-0.18335778 0.057889454 1.028 1.4654056e-38
-0.18068312 0.057945769 1.029 1.4656933e-38
-0.17731164 0.057776831 1.026 1.456474e-38
-0.17446694 0.057776831 1.026 1.4842399e-38
-0.17112042 0.057607889 1.023 1.4844193e-38
-0.16811952 0.057551574 1.022 1.4935678e-38
-0.16496246 0.057438951 1.02 1.521118e-38
-0.16197544 0.057382643 1.0190001 1.5671079e-38
-0.15915015 0.057382643 1.0190001 1.5487414e-38
-0.15632485 0.057382643 1.0190001 1.4938202e-38
-0.15349956 0.057382643 1.0190001 1.5582117e-38
-0.15037853 0.057270013 1.017 1.5766506e-38
-0.14755878 0.057270013 1.017 1.5581406e-38
-0.14459671 0.057213705 1.016 1.5580696e-38
-0.14150065 0.057101078 1.0140001 1.5857996e-38
-0.13868922 0.057101078 1.0140001 1.5948029e-38
-0.13560976 0.056988448 1.012 1.5394134e-38
-0.13254143 0.056875825 1.01 1.6776342e-38
-0.12948418 0.056763202 1.008 1.7054733e-38
-0.12668937 0.056763202 1.008 1.686962e-38
-0.12364876 0.056650575 1.006 1.7514624e-38
-0.1204991 0.056481637 1.003 1.7885577e-38
-0.11748343 0.056369014 1.001 1.936034e-38
-0.11482263 0.056425322 1.002 1.6410091e-38
-0.11193266 0.056369014 1.001 1.9084476e-38
-0.10904822 0.056312699 1 1.8528789e-38
-0.10595677 0.056143761 0.99699998 1.8531299e-38
-0.10308897 0.056087445 0.99599999 1.6872132e-38
-0.10022672 0.056031134 0.995 1.6321485e-38
-0.097565927 0.056087445 0.99599999 1.7057612e-38
-0.094709218 0.056031134 0.995 1.6874649e-38
-0.092042871 0.056087445 0.99599999 1.6597713e-38
-0.089191712 0.056031134 0.995 1.6689187e-38
-0.086432956 0.056031134 0.995 1.714693e-38
-0.083674207 0.056031134 0.995 1.5766158e-38
-0.080834135 0.055974822 0.99400002 1.5397375e-38
-0.078156702 0.056031134 0.995 1.5580697e-38
-0.075473726 0.056087445 0.99599999 1.5488852e-38
-0.073004223 0.056312699 1 1.5305537e-38
-0.070372067 0.056425322 1.002 1.5672158e-38
-0.067796282 0.05659426 1.005 1.5304102e-38
-0.065203868 0.056763202 1.008 1.5027871e-38
-0.062594816 0.05693214 1.011 1.5301945e-38
-0.059909981 0.057044763 1.013 1.5396297e-38
-0.057044949 0.056988448 1.012 1.5395224e-38
-0.054292664 0.057044763 1.013 1.5489212e-38
-0.052144706 0.057776831 1.026 1.5214061e-38
-0.049540255 0.058058392 1.031 1.521155e-38
-0.046908081 0.058339957 1.036 1.5395221e-38
-0.044375695 0.05879046 1.044 1.0694325e-38
-0.041838679 0.059297271 1.053 3.7775083e-39
-0.03925176 0.059804089 1.062 5.3426858e-39
-0.036751684 0.060536154 1.075 5.3412551e-39
-0.034525078 0.061887655 1.099 4.7913141e-39
-0.03285281 0.064590663 1.147 4.425763e-39
-0.03075915 0.066955797 1.189 4.7923847e-39
-0.02803994 0.068363614 1.214 4.2420878e-39
-0.024938203 0.069095679 1.227 3.9672932e-39
-0.021641517 0.069433562 1.233 4.1520473e-39
-0.018222883 0.069433562 1.233 5.0707765e-39
-0.014828262 0.069546185 1.235 1.2000174e-39
-0.011413315 0.069602489 1.2359999 1.1619896e-38
-0.0079799024 0.069546185 1.235 1.5490298e-38
-0.0045151454 0.068926744 1.224 1.6320422e-38
-0.001078402 0.066280052 1.177 1.7051873e-38
0.0020457369 0.062056594 1.102 2.5818504e-39
0.0050039496 0.060874026 1.081 6.5434108e-39
0.0079567367 0.060536154 1.075 6.360823e-39
0.010927124 0.060479838 1.074 4.0602483e-39
0.013853125 0.060254589 1.0700001 9.6855844e-39
0.016819824 0.060254589 1.0700001 1.973202e-38
0.019768029 0.060198274 1.069 1.9086649e-38
0.02266816 0.060029335 1.066 1.9178483e-38
0.025599731 0.059973028 1.0650001 1.8901888e-38
0.028498946 0.059860397 1.063 2.1110634e-38
0.031416655 0.059804089 1.062 8.322802e-40
0.034264106 0.059635147 1.059 1.1117594e-39
0.03713005 0.059522524 1.057 5.628632e-39
0.040060703 0.059522524 1.057 1.29978e-38
0.042950682 0.059466209 1.056 1.7973833e-38
0.045835119 0.059409894 1.0549999 3.782546e-39
0.048575357 0.059184644 1.051 3.9662282e-39
0.051489376 0.059184644 1.051 4.4290126e-39
0.054351628 0.059128329 1.05 4.8896404e-39
0.057262871 0.059128329 1.05 8.3159217e-40
0.060116813 0.059072021 1.049 2.1204998e-38
0.062905125 0.058959398 1.0470001 1.9640898e-38
0.06580805 0.058959398 1.0470001 1.9915336e-38
0.0687766 0.059015706 1.048 1.9730591e-38
0.071682304 0.059015706 1.048 2.0466712e-38
0.074445665 0.058903083 1.046 4.97965e-39
0.077271871 0.058846768 1.045 7.0094056e-39
0.079939112 0.058677834 1.0420001 7.4675279e-39
0.082510211 0.05845258 1.038 8.3848193e-39
0.085305922 0.058396265 1.0369999 3.8711991e-39
0.08809609 0.058339957 1.036 1.7705179e-38
0.090792909 0.058227334 1.034 2.0100445e-38
0.093569204 0.058171015 1.033 1.9916046e-38
0.096433319 0.058171015 1.033 2.0650378e-38
0.099297434 0.058171015 1.033 2.1662017e-38
0.10216154 0.058171015 1.033 2.0556038e-38
0.10492398 0.0581147 1.0319999 1.1158928e-38
0.10788976 0.058171015 1.033 1.6132814e-38
0.11075388 0.058171015 1.033 1.8900115e-38
0.11339802 0.058058392 1.031 2.0192639e-38
0.11580553 0.057833139 1.027 2.0186527e-38
0.11842194 0.057720516 1.025 3.6896371e-39
0.12114557 0.057664204 1.024 6.2704169e-39
0.12386364 0.057607889 1.023 5.5325001e-39
0.12657617 0.057551574 1.022 7.1887956e-39
0.12915654 0.057438951 1.02 2.3053027e-39
0.13224339 0.057551574 1.022 1.8905152e-38
0.13507701 0.057551574 1.022 1.945472e-38
0.13777569 0.057495266 1.021 1.9546201e-38
0.14005566 0.057270013 1.017 1.917886e-38
0.14231347 0.057044763 1.013 1.9179209e-38
0.14483562 0.05693214 1.011 1.7056557e-38
0.14749269 0.056875825 1.01 1.3840247e-39
0.15044184 0.05693214 1.011 6.9143541e-39
0.15324496 0.05693214 1.011 7.0047505e-39
0.15573935 0.05681951 1.0089999 7.3735358e-39
0.15822268 0.056706887 1.007 1.1117636e-39
0.16085482 0.056650575 1.006 1.9820623e-38
0.16331872 0.056537945 1.0039999 1.8993368e-38
0.16593699 0.056481637 1.003 1.8992287e-38
0.16854972 0.056425322 1.002 1.9542943e-38
0.17149886 0.056481637 1.003 1.9360719e-38
0.17410603 0.056425322 1.002 1.8992304e-38
0.17653114 0.056312699 1 1.9636241e-38
0.17948306 0.056369014 1.001 1.8716084e-38
0.18298674 0.05659426 1.005 1.8717875e-38
0.18688232 0.05693214 1.011 1.5300156e-38
0.18968543 0.05693214 1.011 1.6590155e-38
0.19229814 0.056875825 1.01 1.5207222e-38
0.19471216 0.056763202 1.008 1.6310324e-38
0.19731101 0.056706887 1.007 1.6490756e-38
0.19910946 0.056425322 1.002 1.6307804e-38
0.20128319 0.056256387 0.99900001 1.7504911e-38
0.20384878 0.056200076 0.99800003 1.8611969e-38
0.20723693 0.056369014 1.001 1.8983263e-38
0.21064171 0.056537945 1.0039999 1.8338614e-38
0.21491346 0.05693214 1.011 1.8063473e-38
0.2205161 0.057664204 1.024 1.7330232e-38
0.2303351 0.059466209 1.056 1.733096e-38
0.24740013 0.063070223 1.12 1.6499401e-38
0.27308446 0.067913115 1.206 1.2263793e-38
0.28078327 0.068983056 1.225 1.4012993e-38
0.28789145 0.069884062 1.2410001 1.3921163e-38
0.29438406 0.070616119 1.2539999 1.4013367e-38
0.30023625 0.071179256 1.2640001 1.3187205e-38
0.30542293 0.071573444 1.271 1.3646025e-38
0.30991921 0.07179869 1.275 1.3000647e-38
0.31517521 0.072192878 1.2819999 1.088014e-38
0.32071865 0.072643377 1.29 1.0599951e-38
0.32605511 0.073037572 1.2970001 1.115205e-38
0.33092201 0.073319137 1.302 1.0693223e-38
0.33453193 0.073319137 1.302 1.0325878e-38
0.33814189 0.073319137 1.302 1.0325881e-38
0.34122685 0.073206507 1.3 1.0693946e-38
0.34403551 0.073037572 1.2970001 1.106022e-38
0.34736356 0.072981261 1.296 1.1337162e-38
0.35068604 0.072924942 1.295 1.1522258e-38
0.35400304 0.07286863 1.294 1.2074354e-38
0.35759079 0.07286863 1.294 1.2168708e-38
0.36117855 0.07286863 1.294 1.2628974e-38
-0.4208743 0.057375137 0.97100002 1.0509915e-38
-0.42119679 0.057788756 0.97799999 1.0600313e-38
-0.42019677 0.058025111 0.98199999 1.12446e-38
-0.4217253 0.058615997 0.99199998 1.4812159e-39
-0.42404312 0.059325058 1.0039999 3.0417439e-39
-0.42419651 0.059738684 1.011 3.5931367e-39
-0.41930935 0.059443243 1.006 4.4232561e-39
-0.41403586 0.059088707 1 8.757866e-39
-0.40920693 0.058793265 0.995 3.872578e-39
-0.40563118 0.058675084 0.99299997 4.2392179e-39
-0.40003797 0.058261465 0.986 5.8933569e-39
-0.39126 0.057375137 0.97100002 6.2610576e-39
-0.38776743 0.057256956 0.96899998 1.0039963e-38
-0.38786256 0.057670578 0.97600001 9.6801642e-39
-0.38436723 0.057552401 0.97399998 9.4057241e-39
-0.37461331 0.056488801 0.95599997 9.6812376e-39
-0.36807188 0.055897918 0.94599998 9.5901195e-39
-0.37124366 0.05678425 0.96100003 9.6819508e-39
-0.38277003 0.058970533 0.99800003 9.5904783e-39
-0.39218742 0.060861368 1.03 1.0050031e-38
-0.39386755 0.061570436 1.0420001 8.7596554e-39
-0.390228 0.061452255 1.04 1.0605736e-38
-0.3865996 0.061334077 1.038 1.0795528e-38
-0.38335195 0.061274987 1.0369999 1.1442343e-38
-0.38084367 0.061334077 1.038 1.2914596e-38
-0.37832984 0.061393168 1.039 1.3927672e-38
-0.37581041 0.061452255 1.04 1.5308805e-38
-0.37364408 0.061570436 1.0420001 1.6048163e-38
-0.37146664 0.061688613 1.044 1.7796276e-38
-0.36892503 0.061747696 1.045 1.7703715e-38
-0.36567742 0.061688613 1.044 1.7427487e-38
-0.36174032 0.061511345 1.041 1.7611879e-38
-0.34885713 0.059797771 1.012 1.7796273e-38
-0.34160593 0.05902962 0.99900001 1.7427131e-38
-0.33442682 0.058261465 0.986 1.7519681e-38
-0.32900178 0.057788756 0.97799999 1.7611881e-38
-0.32462201 0.05749331 0.97299999 1.8162175e-38
-0.32060084 0.057256956 0.96899998 1.8069982e-38
-0.31660181 0.057020601 0.96499997 1.7887027e-38
-0.31327564 0.056902424 0.963 1.7702999e-38
-0.30996054 0.05678425 0.96100003 1.7704797e-38
-0.30665651 0.056666069 0.95899999 1.7613677e-38
-0.30368057 0.056606982 0.958 1.8073932e-38
-0.30102441 0.056606982 0.958 1.7982102e-38
-0.29836825 0.056606982 0.958 1.669137e-38
-0.29571208 0.056606982 0.958 1.4942898e-38
-0.29336181 0.056666069 0.95899999 1.3288421e-38
-0.29130915 0.05678425 0.96100003 1.3565005e-38
-0.28924537 0.056902424 0.963 1.3842313e-38
-0.28746811 0.057079691 0.96600002 1.3382412e-38
-0.28537938 0.057197869 0.96799999 1.3656486e-38
-0.2832796 0.057316046 0.97000003 1.3563573e-38
-0.28116867 0.057434224 0.972 1.3746518e-38
-0.27961969 0.057670578 0.97600001 1.3379889e-38
-0.27861595 0.058025111 0.98199999 1.5032215e-38
-0.2778599 0.058438733 0.98900002 1.5216246e-38
-0.27678683 0.058793265 0.995 1.5768327e-38
-0.27568054 0.059147798 1.001 1.5679005e-38
-0.27563146 0.059738684 1.011 1.503579e-38
-0.2757968 0.060388658 1.022 1.5401688e-38
-0.27509987 0.060861368 1.03 1.5768313e-38
-0.27383 0.061215904 1.036 1.5766889e-38
-0.27226526 0.061511345 1.041 1.6505162e-38
-0.27041405 0.061747696 1.045 1.68743e-38
-0.26802868 0.061865881 1.0470001 8.0278469e-39
-0.26512575 0.061865881 1.0470001 5.3520339e-39
-0.26222283 0.061865881 1.0470001 9.1270296e-39
-0.25956756 0.061924964 1.048 8.9436992e-39
-0.25690678 0.061984055 1.049 8.6681829e-39
-0.25424042 0.062043142 1.05 9.956035e-39
-0.25108981 0.061984055 1.049 1.0324819e-38
-0.24723499 0.061747696 1.045 1.0325894e-38
-0.2443376 0.061747696 1.045 1.0601756e-38
-0.24213335 0.061924964 1.048 1.060068e-38
-0.23991247 0.062102232 1.051 1.0414854e-38
-0.23677294 0.062043142 1.05 9.9560308e-39
-0.23363899 0.061984055 1.049 1.0784717e-38
-0.23029061 0.061865881 1.0470001 1.0508493e-38
-0.2269533 0.061747696 1.045 1.0508493e-38
-0.22341272 0.061570436 1.0420001 1.0326615e-38
-0.22052366 0.061570436 1.0420001 1.1060576e-38
-0.21742572 0.061511345 1.041 1.1794903e-38
-0.21474552 0.061570436 1.0420001 1.1614106e-38
-0.21185645 0.061570436 1.0420001 1.1522995e-38
-0.20916793 0.061629523 1.043 1.152479e-38
-0.20627609 0.061629523 1.043 1.2354189e-38
-0.20318927 0.061570436 1.0420001 1.318359e-38
-0.20010796 0.061511345 1.041 1.4010839e-38
-0.19665331 0.061334077 1.038 1.2628985e-38
-0.19377533 0.061334077 1.038 1.3366913e-38
-0.19052954 0.061215904 1.036 1.3276876e-38
-0.18747596 0.061156809 1.035 1.3827887e-38
-0.18424959 0.061038636 1.033 1.4102675e-38
-0.18120988 0.060979541 1.0319999 1.3274718e-38
-0.17765728 0.06074319 1.028 1.3273646e-38
-0.17446694 0.060625017 1.026 1.4289594e-38
-0.17145495 0.060565922 1.025 1.4751996e-38
-0.16861303 0.060565922 1.025 1.5028581e-38
-0.1657711 0.060565922 1.025 1.5028223e-38
-0.1624523 0.060388658 1.022 1.5671435e-38
-0.15961868 0.060388658 1.022 1.5209743e-38
-0.15663168 0.060329571 1.021 1.5027514e-38
-0.15380083 0.060329571 1.021 1.5120061e-38
-0.15097 0.060329571 1.021 1.5577089e-38
-0.14799406 0.060270481 1.02 1.5670372e-38
-0.14502367 0.060211398 1.0190001 1.5581413e-38
-0.14191927 0.060093213 1.017 1.6867113e-38
-0.13896276 0.06003413 1.016 1.6592684e-38
-0.13574378 0.059856862 1.013 1.7976335e-38
-0.13267267 0.059738684 1.011 1.742747e-38
-0.12974109 0.059679594 1.01 1.6503364e-38
-0.12706643 0.059738684 1.011 1.7610072e-38
-0.12401748 0.059620503 1.0089999 1.7884493e-38
-0.12073937 0.059384152 1.005 1.8252914e-38
-0.11771816 0.059265975 1.003 1.8069605e-38
-0.11482263 0.059206884 1.002 1.834439e-38
-0.11215629 0.059265975 1.003 1.8161085e-38
-0.10926631 0.059206884 1.002 1.8161805e-38
-0.10616933 0.05902962 0.99900001 1.8898294e-38
-0.10339949 0.05902962 0.99900001 1.8801408e-38
-0.10042818 0.058911439 0.99699998 1.7975254e-38
-0.09776184 0.058970533 0.99800003 1.7057252e-38
-0.094994776 0.058970533 0.99800003 1.770191e-38
-0.092320114 0.05902962 0.99900001 1.6413326e-38
-0.089370988 0.058911439 0.99699998 1.6414037e-38
-0.086519822 0.058852352 0.99599999 1.7054015e-38
-0.083674207 0.058793265 0.995 1.6501204e-38
-0.080915459 0.058793265 0.995 1.5672164e-38
-0.078156702 0.058793265 0.995 1.5764004e-38
-0.075549506 0.058911439 0.99699998 1.558033e-38
-0.073077224 0.059147798 1.001 1.5855835e-38
-0.070372067 0.059206884 1.002 1.6039507e-38
-0.067728825 0.059325058 1.0039999 1.5122583e-38
-0.065203868 0.059561417 1.008 1.447793e-38
-0.062594816 0.059738684 1.011 1.5304098e-38
-0.059969123 0.059915952 1.0140001 1.5121143e-38
-0.057157692 0.059915952 1.0140001 1.5122938e-38
-0.054560643 0.060152303 1.018 1.5857627e-38
-0.05194141 0.060388658 1.022 1.5489566e-38
-0.049684409 0.061097726 1.034 1.5120787e-38
-0.047089189 0.061452255 1.04 1.3456582e-38
-0.044630725 0.062043142 1.05 1.936111e-39
-0.042077079 0.062574945 1.059 6.1720962e-39
-0.039510481 0.063165829 1.069 5.07221e-39
-0.03705937 0.064052157 1.084 4.8903271e-39
-0.03502772 0.065883912 1.115 5.4406226e-39
-0.033253804 0.068601988 1.161 5.7147011e-39
-0.030862628 0.070492826 1.193 5.5306672e-39
-0.02803994 0.071733691 1.214 5.5310259e-39
-0.024958529 0.072560936 1.228 4.981092e-39
-0.021659069 0.072915465 1.234 5.1651217e-39
-0.018237662 0.072915465 1.234 6.0834893e-39
-0.014792241 0.072797284 1.232 3.2322743e-39
-0.011385614 0.072856382 1.233 1.447653e-38
-0.0079605179 0.072797284 1.232 1.5398828e-38
-0.0044967015 0.072029136 1.219 1.7239497e-38
-0.0010664911 0.06877926 1.164 1.9172371e-38
0.0020383114 0.064879403 1.098 3.8715102e-39
0.0050039496 0.063874893 1.081 4.3350009e-39
0.0079567367 0.063520364 1.075 5.2559006e-39
0.010937299 0.063520364 1.075 6.1771506e-39
0.013879019 0.063343093 1.072 3.0467984e-39
0.01686698 0.063402183 1.073 2.0006816e-38
0.019805012 0.063284002 1.071 1.8627829e-38
0.022689426 0.063047655 1.067 1.8812224e-38
0.025623767 0.062988564 1.066 1.9637665e-38
0.028552568 0.062929474 1.0650001 1.9817742e-38
0.031446233 0.062811293 1.063 7.3829231e-40
0.034296457 0.062634028 1.0599999 7.7437561e-39
0.037165176 0.062515847 1.058 7.7434016e-39
0.0400986 0.062515847 1.058 6.913285e-39
0.042950682 0.062397674 1.056 3.6943384e-39
0.045922011 0.062456768 1.057 2.0008244e-38
0.048760224 0.062338583 1.0549999 2.0283749e-38
0.051636346 0.0622795 1.054 2.0651455e-38
0.054455157 0.062161323 1.052 1.9360358e-38
0.05731741 0.062102232 1.051 1.7338543e-38
0.060116813 0.061984055 1.049 1.8992692e-38
0.062965199 0.061924964 1.048 2.0924815e-38
0.065870903 0.061924964 1.048 2.1386151e-38
0.068907857 0.062043142 1.05 2.1019523e-38
0.071819097 0.062043142 1.05 2.1477263e-38
0.074659176 0.061984055 1.049 2.0290339e-39
0.077419765 0.061865881 1.0470001 7.3774847e-39
0.080245972 0.061806787 1.046 6.9168723e-39
0.082907654 0.061629523 1.043 8.018901e-39
0.085717238 0.061570436 1.0420001 1.8468329e-39
0.088436224 0.061452255 1.04 2.0101175e-38
0.091056325 0.061274987 1.0369999 1.9639829e-38
0.093840949 0.061215904 1.036 1.9456163e-38
0.096713379 0.061215904 1.036 1.9454724e-38
0.099585809 0.061215904 1.036 2.0099729e-38
0.10226044 0.061097726 1.034 1.0231928e-38
0.10512733 0.061097726 1.034 6.359021e-39
0.10809865 0.061156809 1.035 6.7296336e-39
0.11107553 0.061215904 1.036 5.9020183e-39
0.11361799 0.061038636 1.033 3.5070759e-39
0.11580553 0.0606841 1.027 1.143441e-38
0.11842194 0.060565922 1.025 1.9912092e-38
0.12114557 0.060506839 1.024 1.8805033e-38
0.12386364 0.060447749 1.023 1.226418e-38
0.12645233 0.060329571 1.021 7.0115566e-39
0.12915654 0.060270481 1.02 3.6972013e-39
0.13224339 0.060388658 1.022 2.0098678e-38
0.13534136 0.060506839 1.024 2.0559627e-38
0.1384504 0.060625017 1.026 1.9271403e-38
0.14060654 0.060329571 1.021 1.9087005e-38
0.14273493 0.06003413 1.016 1.9455789e-38
0.14497887 0.059797771 1.012 1.1616661e-38
0.14778475 0.059797771 1.012 4.5186817e-39
0.15044184 0.059738684 1.011 6.635968e-39
0.15309337 0.059679594 1.01 6.4519299e-39
0.15558502 0.059561417 1.008 6.0849438e-39
0.15822268 0.059502326 1.007 1.5730892e-39
0.16117461 0.059561417 1.008 2.0558195e-38
0.16380672 0.059502326 1.007 1.853348e-38
0.16643332 0.059443243 1.006 1.8717511e-38
0.16905436 0.059384152 1.005 1.9084134e-38
0.17166984 0.059325058 1.0039999 1.8350166e-38
0.17427979 0.059265975 1.003 1.8625319e-38
0.17670767 0.059147798 1.001 1.8808278e-38
0.17984167 0.059265975 1.003 1.8807202e-38
0.18316883 0.059443243 1.006 1.8532049e-38
0.18706715 0.059797771 1.012 1.806567e-38
0.18949781 0.059679594 1.01 1.4745882e-38
0.19210774 0.059620503 1.0089999 1.1982517e-38
0.19451898 0.059502326 1.007 1.4373463e-38
0.19691913 0.059384152 1.005 1.7501657e-38
0.19871205 0.059088707 1 1.8147754e-38
0.20108171 0.058970533 0.99800003 1.861016e-38
0.20384878 0.058970533 0.99800003 1.9713642e-38
0.20682287 0.05902962 0.99900001 1.9623593e-38
0.20959271 0.05902962 0.99900001 1.962252e-38
0.21321286 0.059265975 1.003 1.8612335e-38
0.21771657 0.059738684 1.011 1.6130616e-38
0.22313713 0.060447749 1.023 1.6223527e-38
0.23171674 0.061984055 1.049 1.3644205e-38
0.24782148 0.065470293 1.108 1.4014434e-38
0.27826193 0.071733691 1.214 1.4105903e-38
0.28626755 0.072915465 1.234 1.4289581e-38
0.29274079 0.073683619 1.247 1.3645294e-38
0.29809847 0.074156329 1.255 1.2999212e-38
0.30326021 0.074569948 1.262 1.4376043e-38
0.3082177 0.074924484 1.268 1.271797e-38
0.31419185 0.075515367 1.278 9.772357e-39
0.32022142 0.076106258 1.288 9.4939779e-39
0.3258037 0.076578967 1.296 1.059996e-38
0.33066782 0.076874405 1.301 1.0325524e-38
0.33453193 0.076933503 1.302 1.0508117e-38
0.33840159 0.076992586 1.303 1.0141846e-38
0.34148934 0.076874405 1.301 1.0601025e-38
0.34456602 0.076756231 1.299 1.1059855e-38
0.34763157 0.076638058 1.2970001 1.1152775e-38
0.35068604 0.076519877 1.295 1.1337869e-38
0.35427657 0.076519877 1.295 1.1616253e-38
0.35786712 0.076519877 1.295 1.1800645e-38
0.36117855 0.076460786 1.294 1.2350947e-38
-0.41784018 0.059637588 0.96399999 1.0693592e-38
-0.4194741 0.060256232 0.97399998 1.0692514e-38
-0.41891307 0.060565557 0.97899997 1.1151693e-38
-0.42044994 0.061184205 0.98900002 2.031531e-39
-0.4231984 0.061988443 1.002 3.5005697e-39
-0.42419651 0.062545232 1.011 3.5927737e-39
-0.41972613 0.062297769 1.007 4.974269e-39
-0.41403586 0.061864715 1 6.5440862e-39
-0.40920693 0.061555393 0.995 2.6733145e-39
-0.40481421 0.061307933 0.991 4.4239665e-39
-0.39719793 0.060565557 0.97899997 5.159019e-39
-0.38843936 0.059637588 0.96399999 8.1960616e-39
-0.38576657 0.059637588 0.96399999 1.0595644e-38
-0.3854782 0.060008775 0.97000003 9.3120991e-39
-0.38042095 0.059637588 0.96399999 9.0380206e-39
-0.37304592 0.058895212 0.95200002 9.3135271e-39
-0.37079546 0.058957074 0.95300001 8.7635861e-39
-0.37819719 0.060565557 0.97899997 9.0387352e-39
-0.39044076 0.062978283 1.018 9.1302218e-39
-0.39599505 0.064339302 1.04 9.5883343e-39
-0.39348954 0.064401172 1.041 9.9553161e-39
-0.38872716 0.064091846 1.036 9.129524e-39
-0.38510984 0.063968122 1.034 7.0133433e-39
-0.38298228 0.064091846 1.036 8.8594153e-39
-0.38084367 0.064215578 1.038 1.0796967e-38
-0.37832984 0.06427744 1.039 1.1074627e-38
-0.37544909 0.06427744 1.039 1.2639807e-38
-0.37292689 0.064339302 1.04 1.310223e-38
-0.37146664 0.064586766 1.044 1.4021311e-38
-0.3692781 0.06471049 1.046 1.3468489e-38
-0.36707848 0.064834222 1.048 1.5126924e-38
-0.36417276 0.064834222 1.048 1.5771572e-38
-0.35747513 0.064153709 1.0369999 1.5772301e-38
-0.35152242 0.063596927 1.028 1.6877569e-38
-0.34460208 0.062854551 1.016 1.7429294e-38
-0.33774823 0.062112171 1.0039999 1.6875756e-38
-0.33162826 0.061493531 0.99400002 1.6691015e-38
-0.32655627 0.061060473 0.98699999 1.6781417e-38
-0.32217929 0.060751151 0.98199999 1.715127e-38
-0.31848061 0.060565557 0.97899997 1.6508065e-38
-0.31415352 0.060256232 0.97399998 1.54046e-38
-0.31049371 0.060070641 0.97100002 1.4665234e-38
-0.3071675 0.05994691 0.96899998 1.3744361e-38
-0.30416664 0.059885044 0.96799999 1.356249e-38
-0.3011713 0.059823181 0.96700001 1.4207504e-38
-0.29910752 0.05994691 0.96899998 1.4023841e-38
-0.29672676 0.060008775 0.97000003 1.356358e-38
-0.29494673 0.060194369 0.97299999 1.356645e-38
-0.29254931 0.060256232 0.97399998 1.3656843e-38
-0.29103914 0.060503691 0.97799999 1.3840148e-38
-0.28803271 0.060441829 0.977 1.4114583e-38
-0.28590795 0.060565557 0.97899997 1.4204625e-38
-0.28377211 0.060689289 0.98100001 1.4941104e-38
-0.28219816 0.060936745 0.98500001 1.5308079e-38
-0.28145316 0.061369799 0.99199998 1.5767608e-38
-0.2801075 0.061679121 0.99699998 1.5491381e-38
-0.27873409 0.061988443 1.002 1.5308062e-38
-0.27705756 0.062235907 1.006 1.5400983e-38
-0.27617672 0.062668957 1.013 1.5127268e-38
-0.2757968 0.063225739 1.022 1.5309856e-38
-0.27509987 0.063720658 1.03 1.5308058e-38
-0.27356565 0.064029977 1.035 1.4478304e-38
-0.27200371 0.064339302 1.04 1.5212635e-38
-0.26989651 0.064524896 1.043 1.5397025e-38
-0.26751664 0.064648628 1.045 1.6039519e-38
-0.26461926 0.064648628 1.045 1.1526606e-38
-0.26172188 0.064648628 1.045 5.9048307e-39
-0.2588245 0.064648628 1.045 7.7458678e-39
-0.25592712 0.064648628 1.045 9.2206322e-39
-0.25278762 0.064586766 1.044 9.0376702e-39
-0.24893555 0.064339302 1.04 9.4972191e-39
-0.24581547 0.06427744 1.039 1.0048595e-38
-0.24340235 0.064401172 1.041 1.0140428e-38
-0.24120919 0.064586766 1.044 1.0141134e-38
-0.23877111 0.06471049 1.046 9.8645484e-39
-0.23632194 0.064834222 1.048 1.0231179e-38
-0.23363899 0.064896092 1.049 1.041414e-38
-0.2307305 0.064896092 1.049 1.0138996e-38
-0.2271705 0.06471049 1.046 9.9567525e-39
-0.22384153 0.064586766 1.044 1.0692164e-38
-0.22052366 0.064463042 1.0420001 1.1058788e-38
-0.21763459 0.064463042 1.0420001 1.151869e-38
-0.21474552 0.064463042 1.0420001 1.1613033e-38
-0.21185645 0.064463042 1.0420001 1.1522989e-38
-0.20916793 0.064524896 1.043 1.1432592e-38
-0.20627609 0.064524896 1.043 1.2075087e-38
-0.20338425 0.064524896 1.043 1.1522633e-38
-0.20010796 0.064401172 1.041 1.2168006e-38
-0.1970322 0.064339302 1.04 1.1153138e-38
-0.19377533 0.064215578 1.038 1.2631856e-38
-0.19034563 0.064029977 1.035 1.2542171e-38
-0.18729484 0.063968122 1.034 1.3182511e-38
-0.18407121 0.063844383 1.0319999 1.3735331e-38
-0.18120988 0.063844383 1.0319999 1.3644568e-38
-0.1778301 0.063658796 1.029 1.4103039e-38
-0.17480703 0.063596927 1.028 1.3920802e-38
-0.1717895 0.063535064 1.027 1.4564369e-38
-0.16877754 0.063473202 1.026 1.4106625e-38
-0.16560937 0.06334947 1.024 1.4565452e-38
-0.1624523 0.063225739 1.022 1.4473262e-38
-0.15930632 0.063102007 1.02 1.4472899e-38
-0.15617144 0.062978283 1.018 1.4289943e-38
-0.15349956 0.063040152 1.0190001 1.4568332e-38
-0.15067427 0.063040152 1.0190001 1.557997e-38
-0.14784896 0.063040152 1.0190001 1.5578894e-38
-0.14473902 0.062916413 1.017 1.5671808e-38
-0.14164019 0.062792689 1.015 1.6039869e-38
-0.13868922 0.062730826 1.0140001 1.6593046e-38
-0.13560976 0.062607095 1.012 1.65048e-38
-0.13254143 0.062483363 1.01 1.6965062e-38
-0.12974109 0.062483363 1.01 1.641297e-38
-0.12681505 0.062421497 1.0089999 1.5399183e-38
-0.12389458 0.062359635 1.008 1.5861592e-38
-0.12061922 0.062112171 1.0039999 1.7977781e-38
-0.11760079 0.061988443 1.002 1.6872144e-38
-0.11470804 0.061926585 1.001 1.7054374e-38
-0.11193266 0.061926585 1.001 1.8250038e-38
-0.10904822 0.061864715 1 1.7882331e-38
-0.10616933 0.061802853 0.99900001 1.7979195e-38
-0.10329598 0.061740987 0.99800003 1.8253628e-38
-0.10042818 0.061679121 0.99699998 1.7427823e-38
-0.097663879 0.061679121 0.99699998 1.8162877e-38
-0.09489958 0.061679121 0.99699998 1.6780305e-38
-0.092227705 0.061740987 0.99800003 1.6319683e-38
-0.08928135 0.061617259 0.99599999 1.5216573e-38
-0.08634609 0.061493531 0.99400002 1.5766882e-38
-0.083421923 0.061369799 0.99199998 1.6501921e-38
-0.080752805 0.061431661 0.99299997 1.6134932e-38
-0.078156702 0.061555393 0.995 1.5673961e-38
-0.075473726 0.061617259 0.99599999 1.5673239e-38
-0.072858214 0.061740987 0.99800003 1.6039865e-38
-0.070231602 0.061864715 1 1.6409725e-38
-0.067661367 0.062050313 1.003 1.5674677e-38
-0.06500981 0.062174041 1.005 1.5763995e-38
-0.06247098 0.062421497 1.0089999 1.4660172e-38
-0.059850838 0.062607095 1.012 1.5030389e-38
-0.057214055 0.062792689 1.015 1.539845e-38
-0.054614238 0.063040152 1.0190001 1.5948029e-38
-0.051992238 0.063287608 1.023 1.5029304e-38
-0.049732458 0.064029977 1.035 1.5488125e-38
-0.047179751 0.064463042 1.0420001 7.8351768e-39
-0.044673234 0.065019816 1.051 4.7952728e-39
-0.042196278 0.06570033 1.062 5.9934474e-39
-0.039806161 0.0666283 1.077 5.5349776e-39
-0.037572183 0.06798932 1.099 6.0849116e-39
-0.035813093 0.070525773 1.14 6.1763953e-39
-0.03359751 0.072567314 1.173 6.1753233e-39
-0.030862628 0.073804602 1.193 6.357558e-39
-0.027947553 0.074856311 1.21 6.5419465e-39
-0.02487723 0.075722411 1.224 5.9916468e-39
-0.021606412 0.076155461 1.2309999 5.9016077e-39
-0.018208103 0.076217331 1.232 6.3625873e-39
-0.014768228 0.076093599 1.23 5.6282634e-39
-0.011339444 0.075969875 1.228 1.1153876e-38
-0.0079152882 0.075784281 1.225 1.5486715e-38
-0.0044450578 0.074546985 1.205 1.5766897e-38
-0.0010454179 0.070587642 1.141 1.8248978e-38
0.0020253167 0.0674944 1.091 1.6866764e-38
0.0049854335 0.0666283 1.077 7.1941304e-39
0.0079419333 0.066380836 1.073 4.6566689e-40
0.010906775 0.066318981 1.072 2.9448834e-39
0.013866072 0.066257112 1.071 8.7625351e-39
0.016819824 0.06619525 1.0700001 1.8809345e-38
0.019731045 0.066009656 1.067 1.8811508e-38
0.022625631 0.065824062 1.064 1.9087376e-38
0.025551654 0.065762192 1.063 1.917849e-38
0.028498946 0.065762192 1.063 1.7515728e-38
0.031387068 0.06563846 1.061 8.3120681e-40
0.034231748 0.065452866 1.058 7.5579271e-39
0.03713005 0.065391012 1.057 7.4657399e-39
0.040022802 0.065329142 1.056 3.9684072e-39
0.04291001 0.065267272 1.0549999 6.3672732e-39
0.045835119 0.065267272 1.0549999 2.0100445e-38
0.048667792 0.065143548 1.053 1.9179931e-38
0.051538367 0.065081686 1.052 1.8905139e-38
0.054351628 0.064957947 1.05 1.9366825e-38
0.057262871 0.064957947 1.05 1.7795913e-38
0.060059503 0.064834222 1.048 6.3654711e-39
0.062905125 0.06477236 1.0470001 7.4658239e-40
0.065682337 0.064648628 1.045 4.8089536e-39
0.0687766 0.064834222 1.048 1.1901173e-38
0.071750708 0.064896092 1.049 2.1379318e-38
0.074445665 0.06471049 1.046 8.31197e-40
0.077123985 0.064524896 1.043 8.3265295e-40
0.079939112 0.064463042 1.0420001 3.5074164e-39
0.082748681 0.064401172 1.041 8.3880465e-39
0.085552707 0.064339302 1.04 3.0489606e-39
0.088351198 0.06427744 1.039 2.1113173e-38
0.091056325 0.064153709 1.0369999 1.9365041e-38
0.093931526 0.064153709 1.0369999 1.9272494e-38
0.096806727 0.064153709 1.0369999 1.9088108e-38
0.099489681 0.064029977 1.035 2.0376676e-38
0.10206264 0.063844383 1.0319999 5.5317434e-39
0.10472064 0.063720658 1.03 7.5550418e-39
0.107472 0.063658796 1.029 7.2813514e-39
0.11011057 0.063535064 1.027 7.4646623e-39
0.11284807 0.063473202 1.026 4.2428473e-39
0.11558001 0.063411333 1.025 1.2912785e-38
0.11830641 0.06334947 1.024 1.9456875e-38
0.12102726 0.063287608 1.023 1.9364316e-38
0.12362149 0.063163877 1.021 1.9824211e-38
0.12608077 0.062978283 1.018 2.129467e-38
0.12877667 0.062916413 1.017 2.0463834e-38
0.13172582 0.062978283 1.018 6.9222449e-39
0.13494486 0.063163877 1.021 1.4940392e-38
0.13804556 0.063287608 1.023 1.9820265e-38
0.14019339 0.062978283 1.018 2.1386865e-38
0.14245397 0.062730826 1.0140001 2.1110997e-38
0.14483562 0.062545232 1.011 8.9436936e-39
0.14749269 0.062483363 1.01 4.9818262e-39
0.15014422 0.062421497 1.0089999 6.3626153e-39
0.15263863 0.062297769 1.007 6.5455674e-39
0.15527631 0.062235907 1.006 5.9924006e-39
0.15822268 0.062297769 1.007 4.5269395e-39
0.16165429 0.062545232 1.011 2.0191565e-38
0.16445741 0.062545232 1.011 1.8258698e-38
0.16692963 0.062421497 1.0089999 1.8533843e-38
0.16905436 0.062174041 1.005 1.8808632e-38
0.1711569 0.061926585 1.001 1.8808634e-38
0.17358476 0.061802853 0.99900001 1.8900467e-38
0.17600153 0.061679121 0.99699998 1.8441653e-38
0.17912444 0.061802853 0.99900001 1.8349095e-38
0.18280466 0.062112171 1.0039999 1.8256175e-38
0.18688232 0.062545232 1.011 1.7324872e-38
0.18949781 0.062483363 1.01 9.6751125e-39
0.19191736 0.062359635 1.008 1.5024938e-38
0.19432583 0.062235907 1.006 1.7967312e-38
0.19652726 0.062050313 1.003 1.9253013e-38
0.19831464 0.061740987 0.99800003 1.9252658e-38
0.20067872 0.061617259 0.99599999 1.9345588e-38
0.20344025 0.061617259 0.99599999 1.9437781e-38
0.20620178 0.061617259 0.99599999 1.962073e-38
0.2089633 0.061617259 0.99599999 1.952997e-38
0.2119374 0.061679121 0.99699998 1.9438493e-38
0.2155631 0.061926585 1.001 1.7233355e-38
0.2196472 0.062297769 1.007 1.54838e-38
0.22486904 0.062978283 1.018 1.4473973e-38
0.23238856 0.06427744 1.039 1.4197757e-38
0.28804567 0.075908005 1.227 1.3645288e-38
0.29477307 0.07677412 1.2410001 1.3184673e-38
0.30109751 0.077516489 1.253 1.4194175e-38
0.3062731 0.077949539 1.26 7.4638874e-39
0.31247091 0.07863006 1.271 8.5713069e-39
0.31897834 0.079372428 1.283 9.128075e-39
0.32479814 0.079929218 1.2920001 9.9574601e-39
0.32965118 0.080238543 1.2970001 1.0507405e-38
0.33427501 0.080486 1.301 1.0781829e-38
0.33788216 0.080486 1.301 1.0048934e-38
0.34096438 0.080362268 1.299 1.0508472e-38
0.34377024 0.080176674 1.296 1.060031e-38
0.34709552 0.080114804 1.295 1.115169e-38
0.35014445 0.07999108 1.293 1.0970166e-38
0.3534559 0.079929218 1.2920001 1.143186e-38
0.35703811 0.079929218 1.2920001 1.1341469e-38
0.36034119 0.079867348 1.291 1.170918e-38
-0.41307229 0.061602611 0.95300001 1.0144011e-38
-0.41732073 0.06263686 0.96899998 1.1522269e-38
-0.41805726 0.06315399 0.977 6.9171539e-39
-0.42002481 0.063865036 0.98799998 7.4007336e-40
-0.42362079 0.064834647 1.003 3.5005683e-39
-0.42545527 0.0655457 1.0140001 3.2282918e-39
-0.42181018 0.065416411 1.012 4.6087053e-39
-0.415692 0.064899288 1.0039999 3.9615366e-39
-0.41044074 0.064511448 0.99800003 3.6860413e-39
-0.40522271 0.064123601 0.99199998 5.2508545e-39
-0.39598081 0.063089348 0.97600001 7.1851467e-39
-0.38682759 0.062055096 0.95999998 1.0688548e-38
-0.38616672 0.062378298 0.96499997 9.5861637e-39
-0.3854782 0.062701508 0.97000003 9.4939737e-39
-0.38042095 0.062313657 0.96399999 8.9440285e-39
-0.3757889 0.061990455 0.95899999 8.7607134e-39
-0.37818801 0.062830783 0.972 9.2191776e-39
-0.38746867 0.064834647 1.003 9.4032088e-39
-0.39619383 0.066773869 1.033 9.4954058e-39
-0.39751813 0.067484923 1.044 9.4035717e-39
-0.39348954 0.067290999 1.041 9.4946869e-39
-0.38910234 0.067032427 1.0369999 9.5872385e-39
-0.38510984 0.06683851 1.034 9.4968435e-39
-0.38298228 0.066967793 1.036 9.4954212e-39
-0.38121057 0.067161717 1.039 9.3128362e-39
-0.37905809 0.067290999 1.041 8.1157294e-39
-0.37653315 0.06735564 1.0420001 9.2224399e-39
-0.37436125 0.067484923 1.044 1.0884489e-38
-0.3725341 0.067678846 1.0470001 1.2271738e-38
-0.36998418 0.06774348 1.048 1.2824556e-38
-0.36777899 0.067872755 1.05 1.3193337e-38
-0.36521524 0.067937404 1.051 1.3193699e-38
-0.36195651 0.067872755 1.05 1.2919273e-38
-0.35801944 0.067678846 1.0470001 1.2919991e-38
-0.35342064 0.06735564 1.0420001 1.3837643e-38
-0.34750393 0.066773869 1.033 1.3563215e-38
-0.34063628 0.065998182 1.021 1.3655408e-38
-0.33515856 0.065481059 1.013 1.4205715e-38
-0.33005333 0.065028571 1.006 1.4297549e-38
-0.32563752 0.064705372 1.001 1.4206067e-38
-0.32060435 0.064252883 0.99400002 1.4023475e-38
-0.31592974 0.063865036 0.98799998 1.3840163e-38
-0.31223944 0.063671112 0.98500001 1.3747963e-38
-0.30887994 0.06354183 0.98299998 1.411674e-38
-0.30553159 0.063412555 0.98100001 1.4575207e-38
-0.30342898 0.06354183 0.98299998 1.4207503e-38
-0.30100942 0.063606478 0.98400003 1.4024543e-38
-0.29919055 0.063800395 0.98699999 1.4391882e-38
-0.29675433 0.063865036 0.98799998 1.5217689e-38
-0.29461017 0.063994318 0.99000001 1.595453e-38
-0.29186529 0.063994318 0.99000001 1.5676142e-38
-0.28941244 0.064058959 0.991 1.5675785e-38
-0.28695405 0.064123601 0.99199998 1.5768693e-38
-0.2847766 0.064252883 0.99400002 1.5676493e-38
-0.28315553 0.064511448 0.99800003 1.5400259e-38
-0.28151223 0.064770006 1.002 1.5766169e-38
-0.28012496 0.065093212 1.007 1.5490661e-38
-0.27815917 0.065287136 1.01 1.5214794e-38
-0.27590409 0.065416411 1.012 1.4845293e-38
-0.27498725 0.065868907 1.0190001 1.466126e-38
-0.27349737 0.066192105 1.024 1.4476513e-38
-0.27250841 0.066644587 1.031 1.374254e-38
-0.27095756 0.066967793 1.036 1.4201716e-38
-0.26886144 0.067161717 1.039 1.4476861e-38
-0.2667487 0.06735564 1.0420001 1.4201344e-38
-0.26385963 0.06735564 1.0420001 1.4845279e-38
-0.26097056 0.06735564 1.0420001 1.4289595e-38
-0.25783381 0.067290999 1.041 9.9596307e-39
-0.25396788 0.067032427 1.0369999 6.464826e-39
-0.25012416 0.066773869 1.033 8.6703269e-39
-0.24654195 0.066579945 1.03 9.2209937e-39
-0.24368615 0.066579945 1.03 1.0048601e-38
-0.24176565 0.06683851 1.034 9.9571028e-39
-0.23982292 0.067097075 1.038 9.4050122e-39
-0.23762976 0.067290999 1.041 9.4968449e-39
-0.23541997 0.067484923 1.044 1.0047142e-38
-0.23274806 0.067549556 1.045 1.023082e-38
-0.22985068 0.067549556 1.045 9.9560294e-39
-0.22673614 0.067484923 1.044 9.8656288e-39
-0.22405592 0.067549556 1.045 1.0141861e-38
-0.22115853 0.067549556 1.045 1.0508843e-38
-0.21826115 0.067549556 1.045 1.1152059e-38
-0.21556987 0.067614198 1.046 1.2443512e-38
-0.21266972 0.067614198 1.046 1.1246049e-38
-0.20997012 0.067678846 1.0470001 1.1429371e-38
-0.20686941 0.067614198 1.046 1.1156012e-38
-0.20377424 0.067549556 1.045 1.1249637e-38
-0.2003002 0.06735564 1.0420001 1.1617699e-38
-0.19722167 0.067290999 1.041 1.1801374e-38
-0.19396202 0.067161717 1.039 1.2444948e-38
-0.19071344 0.067032427 1.0369999 1.2814453e-38
-0.18765712 0.066967793 1.036 1.2906647e-38
-0.18460631 0.066903152 1.035 1.3274718e-38
-0.18156108 0.06683851 1.034 1.3553095e-38
-0.17834854 0.066709228 1.0319999 1.4285984e-38
-0.17514712 0.066579945 1.03 1.3826801e-38
-0.17212406 0.066515312 1.029 1.4104816e-38
-0.16910653 0.066450663 1.028 1.4105899e-38
-0.16609454 0.066386022 1.027 1.4196312e-38
-0.16277023 0.066192105 1.024 1.3828972e-38
-0.15946251 0.065998182 1.021 1.3646731e-38
-0.15647826 0.06593354 1.02 1.4382863e-38
-0.15380083 0.065998182 1.021 1.4291027e-38
-0.15111785 0.066062815 1.022 1.447829e-38
-0.14813915 0.065998182 1.021 1.502859e-38
-0.14488135 0.065804258 1.018 1.557997e-38
-0.14191927 0.065739617 1.017 1.640578e-38
-0.13896276 0.065674983 1.016 1.6683808e-38
-0.13601178 0.065610334 1.015 1.6962906e-38
-0.13306636 0.0655457 1.0140001 1.7423168e-38
-0.13012646 0.065481059 1.013 1.8066369e-38
-0.12719211 0.065416411 1.012 1.7697225e-38
-0.12401748 0.065222487 1.0089999 1.6688468e-38
-0.12085951 0.065028571 1.006 1.5670016e-38
-0.11783552 0.064899288 1.0039999 1.6315371e-38
-0.11493723 0.064834647 1.003 1.6777784e-38
-0.11204447 0.064770006 1.002 1.6410075e-38
-0.10926631 0.064770006 1.002 1.8622416e-38
-0.10648815 0.064770006 1.002 1.7608271e-38
-0.10360649 0.064705372 1.001 1.8251837e-38
-0.10073037 0.064640723 1 1.7978121e-38
-0.09776184 0.064511448 0.99800003 1.7701176e-38
-0.094994776 0.064511448 0.99800003 1.7513193e-38
-0.092227705 0.064511448 0.99800003 1.6593407e-38
-0.089460634 0.064511448 0.99800003 1.6408294e-38
-0.086432956 0.064317524 0.995 1.5858352e-38
-0.083506018 0.064188242 0.99299997 1.6226771e-38
-0.080834135 0.064252883 0.99400002 1.5583916e-38
-0.078235254 0.064382166 0.99599999 1.5308049e-38
-0.075549506 0.064446799 0.99699998 1.5582837e-38
-0.072858214 0.064511448 0.99800003 1.5395216e-38
-0.070231602 0.064640723 1 1.613063e-38
-0.067796282 0.064963929 1.005 1.576472e-38
-0.065203868 0.065157853 1.008 1.5854752e-38
-0.062656723 0.065416411 1.012 1.5395939e-38
-0.059969123 0.0655457 1.0140001 1.5398451e-38
-0.057326794 0.065739617 1.017 1.5306249e-38
-0.05466783 0.06593354 1.02 1.5305891e-38
-0.052043062 0.066192105 1.024 1.6040581e-38
-0.049396105 0.066450663 1.028 1.2074738e-38
-0.047270305 0.067484923 1.044 4.3385798e-39
-0.044843253 0.068195961 1.0549999 8.0163591e-39
-0.04243467 0.06903629 1.068 6.6380924e-39
-0.040249683 0.070393749 1.089 6.2707448e-39
-0.038358498 0.072526895 1.122 6.6359344e-39
-0.036535639 0.075177163 1.163 6.3607894e-39
-0.033941217 0.076599255 1.1849999 6.3597118e-39
-0.03104372 0.077568874 1.2 6.3597118e-39
-0.027993746 0.078344561 1.212 6.2675176e-39
-0.02487723 0.079120249 1.224 6.4519032e-39
-0.021553759 0.079378814 1.228 6.0852745e-39
-0.018163765 0.079443447 1.229 6.5466142e-39
-0.014708195 0.07918489 1.225 4.9843472e-39
-0.011265571 0.078861684 1.22 1.3367299e-38
-0.0078442115 0.078473844 1.214 1.5029332e-38
-0.0043749693 0.076663896 1.186 1.5676141e-38
-0.0010289256 0.072591536 1.123 1.6136036e-38
0.002021604 0.070393749 1.089 1.7702627e-38
0.0049900622 0.069682702 1.0779999 2.0186873e-38
0.0079567367 0.069488786 1.075 1.9909576e-38
0.010916949 0.069359496 1.073 2.0092178e-38
0.013866072 0.069230214 1.071 1.9541534e-38
0.016804103 0.069100939 1.069 1.9178856e-38
0.019731045 0.068971656 1.067 1.8720029e-38
0.022625631 0.068777733 1.064 1.8995542e-38
0.025575694 0.068777733 1.064 1.9362877e-38
0.028498946 0.068713091 1.063 1.4198121e-38
0.031416655 0.06864845 1.062 2.8602337e-39
0.034328815 0.068583809 1.061 7.0069141e-39
0.037270561 0.068583809 1.061 8.0171144e-39
0.040174402 0.068519168 1.0599999 5.5317896e-39
0.042950682 0.068260603 1.056 1.1989409e-38
0.045835119 0.068195961 1.0549999 2.0192283e-38
0.048806448 0.068260603 1.056 1.9639115e-38
0.051734328 0.068260603 1.056 1.9088455e-38
0.054558683 0.068131328 1.054 1.9181717e-38
0.057426482 0.068066679 1.053 1.5489946e-38
0.060231429 0.067937404 1.051 6.2718546e-39
0.063145444 0.067937404 1.051 7.1884439e-39
0.06580805 0.067678846 1.0470001 4.2428585e-39
0.068710983 0.067678846 1.0470001 2.9553441e-39
0.071682304 0.06774348 1.048 5.4413414e-39
0.074303322 0.067484923 1.044 2.1202831e-38
0.077050045 0.06735564 1.0420001 1.954079e-38
0.079939112 0.06735564 1.0420001 1.429392e-38
0.082828172 0.06735564 1.0420001 7.0104776e-39
0.085717238 0.06735564 1.0420001 8.5792411e-39
0.088521264 0.067290999 1.041 2.1388678e-38
0.091319747 0.06722635 1.04 2.0007172e-38
0.094384432 0.06735564 1.0420001 1.9547994e-38
0.096993439 0.067161717 1.039 1.945616e-38
0.099585809 0.066967793 1.036 2.0744731e-38
0.10206264 0.066709228 1.0319999 3.9651352e-39
0.10482232 0.066644587 1.031 7.6494053e-39
0.107472 0.066515312 1.029 7.0069015e-39
0.11000337 0.066321388 1.026 7.2827723e-39
0.11273808 0.066256739 1.025 2.9528105e-39
0.11558001 0.066256739 1.025 1.5953084e-38
0.11853748 0.066321388 1.026 2.0192998e-38
0.12114557 0.066192105 1.024 1.899554e-38
0.12374256 0.066062815 1.022 1.8904063e-38
0.12608077 0.065804258 1.018 1.9270323e-38
0.12877667 0.065739617 1.017 1.8623517e-38
0.13172582 0.065804258 1.018 1.2893263e-39
0.13507701 0.066062815 1.022 9.2882126e-40
0.13818052 0.066192105 1.024 9.2666046e-40
0.1403311 0.065868907 1.0190001 1.5777766e-39
0.14245397 0.0655457 1.0140001 7.6594442e-39
0.14469235 0.065287136 1.01 1.4014798e-38
0.14763872 0.065351777 1.011 5.8194888e-39
0.15044184 0.065351777 1.011 2.4006933e-39
0.15309337 0.065287136 1.01 1.5720187e-39
0.15558502 0.065157853 1.008 2.8631274e-39
0.15869406 0.065287136 1.01 2.9506525e-39
0.16245377 0.065674983 1.016 1.8259411e-38
0.16559608 0.065804258 1.018 1.853348e-38
0.16792227 0.065610334 1.015 1.8810065e-38
0.169559 0.065157853 1.008 1.8258693e-38
0.17132787 0.064770006 1.002 1.8533484e-38
0.17358476 0.064576089 0.99900001 1.8991582e-38
0.17617807 0.064511448 0.99800003 1.8716802e-38
0.17948306 0.064705372 1.001 1.8624246e-38
0.18298674 0.064963929 1.005 1.8991944e-38
0.18669747 0.065287136 1.01 1.4188053e-38
0.18949781 0.065287136 1.01 1.3729178e-38
0.19191736 0.065157853 1.008 1.9164061e-38
0.19432583 0.065028571 1.006 2.0084927e-38
0.19652726 0.064834647 1.003 1.9990574e-38
0.19851334 0.064576089 0.99900001 1.9989146e-38
0.20088021 0.064446799 0.99699998 1.9805832e-38
0.2036445 0.064446799 0.99699998 1.9253744e-38
0.20620178 0.064382166 0.99599999 1.8701291e-38
0.2089633 0.064382166 0.99599999 1.8242471e-38
0.21172482 0.064382166 0.99599999 1.851833e-38
0.21491705 0.064511448 0.99800003 1.7874401e-38
0.21812035 0.064640723 1 1.6678385e-38
0.22199744 0.064963929 1.005 1.5392328e-38
0.22679693 0.0655457 1.0140001 1.4840597e-38
0.23345779 0.066644587 1.031 1.4839885e-38
0.29121011 0.079249524 1.226 1.373821e-38
0.29917508 0.080477707 1.245 1.3176065e-38
0.30505773 0.081124112 1.255 4.2370291e-39
0.31173337 0.081964441 1.268 8.1135742e-39
0.31897834 0.082934052 1.283 9.403936e-39
0.32479814 0.083515823 1.2920001 9.8641981e-39
0.32965118 0.083839022 1.2970001 1.0414857e-38
0.33401805 0.084032938 1.3 1.0322658e-38
0.33788216 0.084097587 1.301 1.0139696e-38
0.34096438 0.083968304 1.299 1.0414845e-38
0.34430075 0.083903663 1.298 1.023153e-38
0.34736356 0.08377438 1.296 1.0416645e-38
0.35014445 0.083580457 1.293 1.060354e-38
0.35318232 0.083451174 1.291 1.1155635e-38
0.35676175 0.083451174 1.291 1.1432943e-38
0.36006206 0.083386533 1.29 1.1617344e-38
-0.40613717 0.063169479 0.93699998 1.005253e-38
-0.41301402 0.064652652 0.95899999 1.1522269e-38
-0.41548988 0.06546165 0.97100002 4.7062679e-39
-0.41832432 0.06633807 0.98400003 2.6747509e-39
-0.42193136 0.067349322 0.99900001 3.5009298e-39
-0.42461607 0.068225734 1.012 3.5945576e-39
-0.42139339 0.068158321 1.011 3.8707885e-39
-0.41527799 0.067618988 1.003 4.0526645e-39
-0.4096182 0.067147069 0.99599999 4.0541148e-39
-0.40277177 0.066472903 0.986 3.9604702e-39
-0.39192361 0.065124564 0.96600002 9.763016e-39
-0.38481286 0.064382978 0.95499998 9.493245e-39
-0.38576657 0.064989731 0.96399999 9.6772775e-39
-0.38587558 0.06546165 0.97100002 9.4010578e-39
-0.38278875 0.065394238 0.97000003 9.4014193e-39
-0.38245043 0.065798737 0.97600001 9.0351521e-39
-0.38791507 0.067214482 0.99699998 9.4010606e-39
-0.39635378 0.069169573 1.026 9.584377e-39
-0.39849505 0.070045993 1.039 9.7687655e-39
-0.39675662 0.070248239 1.0420001 9.4936135e-39
-0.3915996 0.069843739 1.036 9.1276953e-39
-0.38760149 0.069641486 1.033 9.5868713e-39
-0.3843649 0.069574066 1.0319999 9.7709179e-39
-0.38261262 0.069776319 1.035 9.4035801e-39
-0.38121057 0.070045993 1.039 9.3121145e-39
-0.37905809 0.070180818 1.041 9.7730885e-39
-0.3768945 0.070315652 1.043 1.0049684e-38
-0.37436125 0.070383072 1.044 1.0972723e-38
-0.37217826 0.070517905 1.046 1.3277974e-38
-0.36963117 0.070585325 1.0470001 1.3186858e-38
-0.36742875 0.070720159 1.049 1.2451455e-38
-0.36556277 0.070922405 1.052 1.2085553e-38
-0.36299068 0.070989817 1.053 1.2362862e-38
-0.35972917 0.070922405 1.052 1.3100068e-38
-0.35579485 0.070720159 1.049 1.3469575e-38
-0.35019517 0.070180818 1.041 1.3103311e-38
-0.34363893 0.069439232 1.03 1.3379179e-38
-0.33879802 0.06903474 1.024 1.392984e-38
-0.33431843 0.068697654 1.0190001 1.4113508e-38
-0.32954124 0.068293154 1.013 1.4114228e-38
-0.32415226 0.067753822 1.005 1.411459e-38
-0.31912744 0.067281902 0.99800003 1.3931636e-38
-0.31509238 0.067012236 0.99400002 1.4115303e-38
-0.31170794 0.066877402 0.99199998 1.4574841e-38
-0.30864608 0.066809982 0.991 1.4480845e-38
-0.30620709 0.066877402 0.99199998 1.5032222e-38
-0.30345663 0.066877402 0.99199998 1.5033301e-38
-0.30100933 0.066944815 0.99299997 1.4941816e-38
-0.29795578 0.066877402 0.99199998 1.5125124e-38
-0.29580054 0.067012236 0.99400002 1.4757062e-38
-0.29304454 0.067012236 0.99400002 1.5032575e-38
-0.2905806 0.067079648 0.995 1.5124773e-38
-0.28811112 0.067147069 0.99599999 1.5584307e-38
-0.28534958 0.067147069 0.99599999 1.5767259e-38
-0.28287178 0.067214482 0.99699998 1.5582862e-38
-0.28095034 0.067416735 1 1.5489946e-38
-0.27901226 0.067618988 1.003 1.5306272e-38
-0.27678216 0.067753822 1.005 1.475418e-38
-0.27454093 0.067888647 1.007 1.4570149e-38
-0.27336806 0.068293154 1.013 1.4660188e-38
-0.27189484 0.068630233 1.018 1.4291047e-38
-0.26986527 0.068832487 1.021 1.4106656e-38
-0.2675575 0.06896732 1.023 1.4015894e-38
-0.26472113 0.06896732 1.023 1.447543e-38
-0.26265272 0.069169573 1.026 1.4292831e-38
-0.26006123 0.069236986 1.027 1.3648538e-38
-0.25721377 0.069236986 1.027 1.3095368e-38
-0.25436628 0.069236986 1.027 1.2542543e-38
-0.25078413 0.06903474 1.024 1.300028e-38
-0.24673429 0.068697654 1.0190001 8.3026261e-39
-0.24366963 0.068630233 1.018 8.6710513e-39
-0.2410837 0.068697654 1.0190001 9.772727e-39
-0.23942748 0.06903474 1.024 9.8634778e-39
-0.23751248 0.069304407 1.028 9.7709221e-39
-0.2355753 0.069574066 1.0319999 9.586535e-39
-0.233165 0.069708906 1.034 9.9538784e-39
-0.23007537 0.069641486 1.033 1.0137549e-38
-0.22721125 0.069641486 1.033 9.956028e-39
-0.2247815 0.069776319 1.035 9.9567441e-39
-0.22319829 0.070180818 1.041 1.0324808e-38
-0.22094692 0.070383072 1.044 1.0049303e-38
-0.21867889 0.070585325 1.0470001 1.0323381e-38
-0.21618815 0.070720159 1.049 1.078221e-38
-0.21348298 0.070787571 1.05 1.1242462e-38
-0.2103712 0.070720159 1.049 1.1243904e-38
-0.20726494 0.070652738 1.048 1.1519043e-38
-0.20396926 0.070517905 1.046 1.152191e-38
-0.20049241 0.070315652 1.043 1.1707731e-38
-0.19741113 0.070248239 1.0420001 1.1983602e-38
-0.19414869 0.070113398 1.04 1.2443151e-38
-0.19089736 0.069978572 1.038 1.2720814e-38
-0.18765712 0.069843739 1.036 1.2538223e-38
-0.18460631 0.069776319 1.035 1.3182882e-38
-0.18156108 0.069708906 1.034 1.3644566e-38
-0.17852136 0.069641486 1.033 1.3551645e-38
-0.17531717 0.069506653 1.031 1.3826079e-38
-0.17195678 0.069304407 1.028 1.3461253e-38
-0.16877754 0.069169573 1.026 1.3277226e-38
-0.1657711 0.069102153 1.025 1.3552749e-38
-0.16277023 0.06903474 1.024 1.3735334e-38
-0.15946251 0.068832487 1.021 1.3463062e-38
-0.15647826 0.068765067 1.02 1.4107355e-38
-0.15349956 0.068697654 1.0190001 1.4292105e-38
-0.15082212 0.068765067 1.02 1.4386094e-38
-0.14784896 0.068697654 1.0190001 1.5396289e-38
-0.14488135 0.068630233 1.018 1.6131342e-38
-0.14177974 0.068495408 1.016 1.6313935e-38
-0.13882598 0.068427987 1.015 1.5855468e-38
-0.13601178 0.068427987 1.015 1.4935309e-38
-0.13306636 0.068360575 1.0140001 1.5300865e-38
-0.13012646 0.068293154 1.013 1.5760768e-38
-0.12706643 0.068158321 1.011 1.6867107e-38
-0.12401748 0.06802348 1.0089999 1.7607901e-38
-0.12097964 0.067888647 1.007 1.576148e-38
-0.11783552 0.067686401 1.0039999 1.5854762e-38
-0.11493723 0.067618988 1.003 1.5213345e-38
-0.11204447 0.067551568 1.002 1.585296e-38
-0.10915727 0.067484155 1.001 1.668595e-38
-0.10638188 0.067484155 1.001 1.7146577e-38
-0.10350299 0.067416735 1 1.6963986e-38
-0.10073037 0.067416735 1 1.715196e-38
-0.09776184 0.067281902 0.99800003 1.7792294e-38
-0.094994776 0.067281902 0.99800003 1.7055101e-38
-0.092227705 0.067281902 0.99800003 1.641081e-38
-0.089460634 0.067281902 0.99800003 1.5855843e-38
-0.086519822 0.067147069 0.99599999 1.5857633e-38
-0.083590113 0.067012236 0.99400002 1.5858346e-38
